# .PCD v0.7 - Point Cloud Data file format
VERSION 0.7
FIELDS x y z
SIZE 4 4 4
TYPE F F F
COUNT 1 1 1
WIDTH 1475
HEIGHT 1
VIEWPOINT 0 0 0 1 0 0 0
POINTS 1475
DATA ascii
5.6986179 -5.1451693 0.054893851
5.6762886 -5.1388645 0.056583285
5.6799278 -5.172442 0.053673744
5.6643877 -5.1743913 0.054330707
5.6541972 -5.1878834 0.053767562
5.6423378 -5.1966267 0.053673744
5.6174035 -5.1836925 0.056020141
5.629468 -5.2324286 0.051421165
5.6262836 -5.2551103 0.049731791
5.5972443 -5.2354493 0.052829027
5.5796432 -5.2372532 0.053579867
5.5804272 -5.2664981 0.051139593
5.5805759 -5.2938094 0.048887074
5.5583115 -5.288075 0.050482631
5.5588131 -5.3185048 0.04794848
5.5370703 -5.3100882 0.049731791
5.5243883 -5.3188686 0.049637914
5.517168 -5.3367968 0.048511624
5.5138822 -5.3591275 0.04682225
5.5030513 -5.371201 0.046352923
5.4857745 -5.3723602 0.047103822
5.4719915 -5.3770623 0.047385395
5.4561734 -5.3817854 0.047760785
5.4579229 -5.4144793 0.044945121
5.5977292 5.6413541 -0.00025486946
5.618032 5.6452875 -0.0016093254
5.628006 5.6327047 -0.0010288358
5.6538601 5.6434336 -0.0032539964
5.6588926 5.6212683 -0.0016093254
5.6677809 5.6069431 -0.0008353591
5.6802187 5.5949817 -0.00044840574
5.7106466 5.6141076 -0.0036409497
5.7083893 5.5814085 -0.00073862076
5.7232394 5.5746593 -0.00093209743
5.7324924 5.5587559 -6.1392784e-05
5.7396088 5.5418391 0.0010027885
5.7523413 5.5305471 0.0012930036
5.7675815 5.5256572 0.00090605021
5.7806783 5.5184789 -0.00043332577
5.7928152 5.5062699 -4.5597553e-05
5.79035 5.4733505 0.0028623343
5.7955737 5.4539237 0.0042193532
5.8195648 5.4605169 0.0023776889
5.8336334 5.4538012 0.002183795
5.8360906 5.4302478 0.0040255189
5.8553658 5.4293318 0.0030561686
5.8677621 5.4189305 0.0032500625
5.8615074 5.3835273 0.0065457225
5.897325 5.4076424 0.0025715232
5.8999777 5.3825736 0.0045101643
5.9117551 5.3735647 0.0046070814
5.9255877 5.364306 0.0046070814
5.9247169 5.3354611 0.0058020949
5.9472876 5.342485 0.0039569139
5.961586 5.3339372 0.0038597584
5.9644108 5.3108187 0.005607903
5.9776649 5.3040705 0.0054136515
5.9686327 5.261889 0.0093954802
5.9839497 5.2571688 0.0089098811
6.0104599 5.2694769 0.0063848495
6.0273762 5.2647319 0.0058020949
6.0421677 5.2590575 0.0054136515
6.0592041 5.2565103 0.0046367049
6.0840936 5.2638326 0.0025972724
7.7892256 -0.54144722 0.097558141
7.7493382 -0.55022568 0.10145402
7.7608948 -0.56551015 0.10384244
7.7528181 -0.57780612 0.10451967
7.7940588 -0.59469444 0.10026288
7.7539177 -0.60466951 0.10413271
7.8085413 -0.62377119 0.098521471
7.7859039 -0.63397312 0.10064989
7.7843103 -0.64806318 0.10064989
7.8049407 -0.6642229 0.098424733
7.7976675 -0.67610079 0.099005222
7.761302 -0.68546915 0.10248804
7.7596402 -0.69897586 0.10248804
7.793746 -0.71595758 0.098908484
7.7823033 -0.72882164 0.099875927
7.780602 -0.74185914 0.099875927
7.7737589 -0.75367689 0.096681595
7.7400851 -0.76339215 0.099895716
7.7690988 -0.78061354 0.096778989
7.7529154 -0.79105729 0.098239958
7.74226 -0.80381382 0.099116504
7.7499928 -0.81816429 0.098142564
7.7414265 -0.82960397 0.098824322
7.7537379 -0.84576243 0.097363353
7.7431135 -0.85739982 0.098239958
7.7344646 -0.86877453 0.098921716
7.7274656 -0.88196748 0.099408686
7.722436 -0.89492434 0.099700868
7.7108326 -0.90573007 0.10067487
7.7172475 -0.92054677 0.099798322
7.7332044 -0.93702072 0.097947776
7.728219 -0.94893074 0.098239958
7.7191095 -0.96170372 0.098921716
7.726419 -0.97627866 0.097947776
7.7127395 -0.9866116 0.099116504
7.7092772 -1.0003374 0.099213898
7.7241263 -1.016366 0.097460747
7.6931753 -1.0234033 0.10038269
7.693439 -1.0377939 0.1000905
7.6766825 -1.047874 0.10155141
7.6867166 -1.0625525 0.10028529
7.6945019 -1.0784473 0.099213898
7.7052016 -1.0944455 0.097850382
7.7008228 -1.1063988 0.09804517
7.698009 -1.1197326 0.096996903
7.6876526 -1.1315053 0.097777545
7.6793871 -1.1426082 0.098363042
7.6812305 -1.1574283 0.097875118
7.6804018 -1.17063 0.097679973
7.6644583 -1.1800268 0.099046171
7.645318 -1.1902571 0.10070509
7.6643281 -1.2078114 0.098460674
7.6483207 -1.2170742 0.099826813
7.6518507 -1.2323134 0.099143744
7.6716704 -1.2502596 0.096801758
7.6555877 -1.2594428 0.098167896
7.6589971 -1.274749 0.097484827
7.6446428 -1.2847953 0.09865582
7.6228342 -1.2924595 0.10060745
7.6261468 -1.307729 0.099924386
7.608779 -1.3174248 0.10138816
7.6246552 -1.334213 0.099436462
7.6221924 -1.3481195 0.099338889
7.6265426 -1.3626781 0.098558247
7.6281595 -1.3760369 0.098070323
7.6133561 -1.3868005 0.099241316
7.6176 -1.4013929 0.098460674
7.6116009 -1.4127862 0.098753393
7.596724 -1.4234247 0.099924386
7.5858512 -1.4339988 0.10070509
7.5722804 -1.4432647 0.10177845
7.58921 -1.4624453 0.099631667
7.5857511 -1.4750178 0.099631667
7.5852094 -1.4878626 0.099338889
7.5645719 -1.4966881 0.10109538
7.5562153 -1.508373 0.1015833
7.5798755 -1.5281372 0.098753393
7.5826468 -1.5430808 0.098070323
7.5452719 -1.5463262 0.1015833
7.5445552 -1.5591187 0.10129058
7.5433617 -1.5734127 0.10099781
7.531261 -1.5833604 0.10187608
7.5583525 -1.6045871 0.09865582
7.553318 -1.6178007 0.098753393
7.5476294 -1.6297145 0.098948538
7.5437737 -1.6416416 0.09738183
7.544209 -1.6565547 0.096892536
7.5078583 -1.6587672 0.10031772
7.5346375 -1.6803858 0.097088277
7.546061 -1.6988783 0.095424592
7.5261612 -1.7067497 0.097088277
7.5187473 -1.71697 0.097479701
7.5208111 -1.7324939 0.096794665
7.505475 -1.7417207 0.097969055
7.5208602 -1.7600772 0.095913887
7.516521 -1.7729812 0.095913887
7.4928331 -1.7792978 0.097969055
7.0533667 3.9913089 0.025746405
7.4805126 -1.7883072 0.098849773
7.0081096 3.9349053 0.032890379
7.4924607 -1.8073211 0.097088277
7.0159745 3.9209476 0.033183932
7.5047894 -1.825453 0.096375108
7.0178189 3.9035304 0.034162581
7.4786315 -1.8296001 0.098719358
7.0282283 3.8939981 0.033966839
7.4885988 -1.8480804 0.097156525
7.0239592 3.8701391 0.035826206
7.4814701 -1.8594313 0.097449601
7.0354176 3.8607507 0.035532653
7.4863811 -1.8745384 0.0964728
7.057045 3.8603635 0.033868968
7.4596524 -1.8799043 0.09881705
7.0495825 3.834089 0.036119819
7.4615822 -1.8944979 0.098133326
7.0428033 3.8099992 0.038174927
7.4800673 -1.9146557 0.095691383
7.0461912 3.7949197 0.038859963
7.4414492 -1.9154558 0.099305451
7.0604916 3.7863636 0.038272798
7.4394531 -1.9291813 0.099012375
7.0820332 3.7842495 0.036706984
7.4459729 -1.9450097 0.097840309
7.070076 3.7570798 0.039349318
7.4466243 -1.9597924 0.097254217
7.0839481 3.7488828 0.038762093
7.4581261 -1.978749 0.095496058
7.0909181 3.7352562 0.039055705
7.4382 -1.9845886 0.097156525
7.0940719 3.7201445 0.039740741
7.4347272 -1.9984 0.094866693
7.1028514 3.7072368 0.039838612
7.426363 -2.0091882 0.095258892
7.1093516 3.6940377 0.040132165
7.4389677 -2.0276315 0.093395948
7.1177802 3.683058 0.040132165
7.4283476 -2.0386732 0.093984246
7.1086822 3.6565523 0.042480886
7.4271178 -2.0522976 0.093592048
7.1026592 3.6339653 0.044340312
7.4161286 -2.0614605 0.094278395
7.1039681 3.6177354 0.045221031
7.4108419 -2.0745883 0.094278395
7.1240392 3.6134915 0.042704642
7.4140148 -2.0900285 0.093395948
7.1466403 3.6124816 0.040939748
7.4128475 -2.1031671 0.09300375
7.1439619 3.5933046 0.042312443
7.4020634 -2.1140621 0.093592048
7.1391158 3.5704679 0.044077277
7.3826876 -2.1202185 0.095160842
7.1530786 3.5629895 0.043390989
7.3912997 -2.1374352 0.093690097
7.1431708 3.538713 0.045646071
7.3858161 -2.1504989 0.093690097
7.1663899 3.5365641 0.043881178
7.3518319 -2.1509016 0.096305907
7.175127 3.5245273 0.043881178
7.3674808 -2.1711981 0.094048619
7.1855297 3.5151012 0.043587089
7.3647938 -2.18487 0.093754232
7.1886854 3.4990549 0.044273376
7.366529 -2.2004716 0.09296906
7.1822972 3.4762456 0.04613632
7.3499308 -2.2069826 0.094244897
7.2052808 3.4757814 0.044273376
7.3282514 -2.2129128 0.09601146
7.2006998 3.4536583 0.04594022
7.3585472 -2.2405565 0.092085779
7.2248073 3.4531679 0.043979228
7.3445578 -2.2481484 0.093067229
7.211175 3.4269001 0.046626568
7.3547521 -2.2682328 0.091300666
7.2431045 3.430361 0.043783128
7.3165822 -2.2654808 0.094931901
7.2296705 3.403688 0.046430469
7.3149548 -2.2785254 0.094539344
7.2382312 3.3929832 0.046332419
7.3144102 -2.2938101 0.09395051
7.2389121 3.3748124 0.047312915
7.3160233 -2.3089645 0.093165338
7.2573686 3.3701715 0.04603827
7.3248687 -2.3269222 0.091595054
7.2376966 3.3403311 0.049371958
7.3072491 -2.3343976 0.09077096
7.2551265 3.3336163 0.048293412
7.2970786 -2.3447082 0.091263533
7.2585135 3.318115 0.04888171
7.2934866 -2.3569312 0.09106648
7.2434373 3.291707 0.0516271
7.273612 -2.3626091 0.092642725
7.258853 3.2843101 0.050744653
7.27391 -2.3778226 0.091953099
7.2750735 3.2773912 0.049764156
7.2781191 -2.3937879 0.090869486
7.289855 3.2708275 0.04888171
7.2780967 -2.4095156 0.090179861
7.2835903 3.2484548 0.050646603
7.2540174 -2.4124219 0.092248678
7.2870812 3.2338636 0.049441397
7.2598596 -2.4292648 0.090967953
7.2895532 3.2193148 0.050031364
7.2771587 -2.4535675 0.088308096
7.295351 3.2049227 0.050326347
7.268713 -2.4640965 0.088603616
7.3258867 3.2076817 0.047573149
7.2613492 -2.4745603 0.088800669
7.2880898 3.1675513 0.052981198
7.2410951 -2.4803221 0.090376914
7.2945633 3.1536992 0.053177834
7.2482104 -2.4986176 0.088899136
7.339891 3.1655965 0.048654735
7.2218986 -2.4994524 0.093361616
7.3363924 3.1473935 0.049933016
7.2258639 -2.517375 0.092183948
7.3461075 3.1354806 0.049736381
7.2161798 -2.5277662 0.092576504
7.3563242 3.1245291 0.049441397
7.2190428 -2.5434322 0.091595054
7.3609581 3.1114566 0.049736381
7.2153378 -2.5569251 0.091300666
7.3495698 3.0872791 0.0519979
7.1900682 -2.5591645 0.093459785
7.3613377 3.077311 0.051506281
7.2160482 -2.5870373 0.089828491
7.3658524 3.064245 0.051801264
7.2042475 -2.5969203 0.090417385
7.3428931 3.0327044 0.055439413
7.1920657 -2.6053729 0.091104388
7.3942809 3.0471406 0.050228
7.1972542 -2.6224835 0.089828491
7.3536258 3.0071907 0.055832744
7.1674151 -2.6226099 0.092478335
7.3805614 3.005584 0.053571165
7.1680121 -2.6378684 0.091693223
7.3809896 2.9895577 0.054357827
7.1705227 -2.6536109 0.090711772
7.3844423 2.9759927 0.054751098
7.1739297 -2.6717017 0.089534104
7.3761058 2.9536481 0.056619346
7.151927 -2.6746583 0.087615252
7.4016123 2.9522769 0.054456115
7.1509175 -2.6885426 0.087022483
7.3881216 2.9289973 0.056815982
7.1448569 -2.7014546 0.086923718
7.3964648 2.9164078 0.056717694
7.1274114 -2.706785 0.08820802
7.4143581 2.9105294 0.055439413
7.1373119 -2.7268491 0.08633095
7.3939223 2.8835413 0.058585942
7.129458 -2.7387743 0.086429715
7.4309444 2.8871222 0.055144429
7.1328077 -2.7564733 0.085244238
7.4254394 2.8673713 0.057736039
7.1113381 -2.7587938 0.087022483
7.4311161 2.855195 0.057834208
7.1019855 -2.7692187 0.087318897
7.4551606 2.8519013 0.055871367
7.0968122 -2.7820497 0.087121308
7.439199 2.8265128 0.058521152
7.0980115 -2.7973859 0.086232126
7.444778 2.814311 0.05861932
7.0983634 -2.814111 0.085343003
7.4664946 2.8089767 0.056950927
7.0899916 -2.8245161 0.085540593
7.432971 2.7749856 0.061563611
7.0747128 -2.8302031 0.090846658
7.4675307 2.7784355 0.058324873
7.0624294 -2.8394597 0.091434956
7.4532108 2.7537205 0.060778439
7.09484 -2.874243 0.086826682
7.4537272 2.7382734 0.061465442
7.0583124 -2.8671198 0.09035641
7.4737048 2.7337601 0.059895158
7.0409694 -2.8732762 0.091533005
7.4695125 2.7146008 0.061170995
7.046576 -2.8921139 0.090062261
7.4724965 2.7005064 0.061563611
7.0474248 -2.9074993 0.089179814
7.4579363 2.6779611 0.063919008
7.037467 -2.9181409 0.089473963
7.4811964 2.6731637 0.062054276
7.043458 -2.9380233 0.087905228
7.495564 2.6643305 0.061170995
7.0098038 -2.931438 0.091140807
7.5048332 2.6547239 0.060778439
6.9989715 -2.9414487 0.091533005
7.496017 2.6334543 0.062545002
7.0147114 -2.9675434 0.088787615
7.5146546 2.6267099 0.061170995
7.0038242 -2.9756896 0.089277864
7.4971623 2.6030686 0.063820839
6.9964557 -2.9873011 0.089277864
7.5087919 2.5928044 0.063232005
7.0002904 -3.0060806 0.085254133
7.4986224 2.5717437 0.065096676
6.9885163 -3.013638 0.085845232
7.5227833 2.5688634 0.063035727
6.9579225 -3.0108824 0.088603616
7.5110106 2.5464995 0.065096676
6.9491248 -3.0208781 0.088800669
7.5126667 2.5319839 0.065587401
6.9544206 -3.039443 0.08732295
7.5184207 2.5200799 0.065587401
6.9514747 -3.054574 0.086731851
7.5257368 2.5070915 0.065489292
6.9563613 -3.0736463 0.085254133
7.5246511 2.4913201 0.066274405
6.9307184 -3.0718961 0.087519944
7.5258188 2.4772637 0.065665543
6.9066567 -3.0729742 0.089490235
7.5453391 2.4700339 0.064190626
6.8977251 -3.082824 0.089687288
7.5494223 2.4567332 0.064387321
6.914844 -3.1095963 0.086731851
7.549715 2.4422908 0.064977288
6.9277515 -3.1356018 0.084170461
7.5233054 2.4137533 0.068615437
6.9079437 -3.1388133 0.085648179
7.5407267 2.4060891 0.067337155
6.9127898 -3.1575489 0.084170461
7.5568023 2.3989506 0.066157222
6.9009676 -3.166177 0.084663033
7.5697851 2.3891463 0.06537056
6.8667674 -3.159276 0.08791399
7.5827513 2.379292 0.064583957
6.8794804 -3.1835549 0.085451126
7.5624242 2.3557422 0.067435503
6.8927827 -3.2103312 0.082791269
7.5462322 2.3323779 0.069893718
6.8748055 -3.2139623 0.084071934
7.5553031 2.3214636 0.069500387
6.8523822 -3.2137287 0.085943699
7.5730338 2.3149159 0.068123758
6.8591609 -3.2360878 0.084071934
7.5798335 2.3017545 0.06802547
6.8277349 -3.2299626 0.087027371
7.5851727 2.2891495 0.066930354
6.846396 -3.2589731 0.083776414
7.6001892 2.2812927 0.065846741
6.8529792 -3.281426 0.08190459
7.6024351 2.266151 0.066240788
6.8168507 -3.2716904 0.085451126
7.6024218 2.2512646 0.066831887
6.8250718 -3.2934244 0.083480835
7.5878248 2.230871 0.068999171
6.8283525 -3.3136339 0.082003117
7.5997925 2.2199037 0.068309605
6.7782159 -3.2932615 0.08732295
7.5897794 2.2009702 0.069984317
6.7874207 -3.3165066 0.083564699
7.6093535 2.1943042 0.068408072
6.782321 -3.3298979 0.08316952
7.6111455 2.1796968 0.068802178
6.7849617 -3.3491035 0.081786394
7.6101975 2.1639977 0.069491744
6.7765255 -3.3587341 0.081885219
7.6196094 2.153687 0.068999171
6.7702079 -3.3719597 0.081588805
7.6196885 2.137852 0.069590271
6.7513423 -3.3743367 0.082971931
7.5931358 2.1126361 0.07303828
6.7590718 -3.3962619 0.080996037
7.5979238 2.100548 0.07303828
6.7464776 -3.4047275 0.08149004
7.6293578 2.0971539 0.068547964
6.7168221 -3.398664 0.084256291
7.6478896 2.0897589 0.067066073
6.7320905 -3.4265711 0.08129245
7.6209068 2.0652883 0.070523858
6.7271042 -3.4409091 0.080798447
7.636148 2.055443 0.069437146
6.7135496 -3.4472179 0.08149004
7.6337342 2.0399823 0.070227504
6.6949735 -3.4488595 0.082873166
7.6338115 2.0260832 0.070721447
7.642611 2.0137429 0.070326269
7.6530137 2.0025575 0.0697335
7.6511698 1.9879739 0.070425093
7.635067 1.9670382 0.072697341
7.6572361 1.9601519 0.070820272
7.6306071 1.9366899 0.074179232
7.6637053 1.9336665 0.071116626
7.6802406 1.9245913 0.068745852
7.6745195 1.9087443 0.06983465
7.6555367 1.8865843 0.07240814
7.6820064 1.8814981 0.070032597
7.6660576 1.8622355 0.072210193
7.6891789 1.8547368 0.070230544
7.6714687 1.8344209 0.072606087
7.6820617 1.8243241 0.071913242
7.6728778 1.8058786 0.073397934
7.6752853 1.7924852 0.073595881
7.6885662 1.7832429 0.072606087
7.7023358 1.7724073 0.071616292
7.7075977 1.7593389 0.071517289
7.7087979 1.7460985 0.071814239
7.6965089 1.7274511 0.074673235
7.707221 1.7161424 0.073981643
7.7027516 1.701184 0.074870825
7.694078 1.6832771 0.076253951
7.7323995 1.6809978 0.072598577
7.7138891 1.6617961 0.07496959
7.6846228 1.6377802 0.078526199
7.7061567 1.6302609 0.076649129
7.6902752 1.6121113 0.078723788
7.687839 1.5963442 0.079415381
7.6617393 1.5748329 0.082576752
5.7402182 -4.6713872 0.056781292
5.747365 -4.7046547 0.05359906
5.7439976 -4.7227058 0.052306235
5.7227421 -4.7188845 0.053897381
5.7109175 -4.7261844 0.053996801
5.6972723 -4.7299695 0.054494083
5.6833963 -4.7362618 0.054792404
5.6766849 -4.75172 0.053897381
5.673058 -4.7697167 0.052604556
5.6484275 -4.7596865 0.054891825
5.6504731 -4.7878599 0.052405715
5.6279049 -4.7786789 0.054494083
5.6332021 -4.8127861 0.051311791
5.6217179 -4.8206611 0.051311791
5.6146297 -4.8340054 0.052846253
5.5989046 -4.8376327 0.05344069
5.5900745 -4.8494549 0.052945316
5.5795069 -4.8577228 0.052846253
5.5712967 -4.8725557 0.05205369
5.55967 -4.8802819 0.05205369
5.5533047 -4.8949723 0.051162004
5.5444183 -4.9089556 0.050468504
5.5247416 -4.9044113 0.051954567
5.5193844 -4.9218059 0.050765693
5.5066428 -4.9288945 0.050864756
5.5070057 -4.9563899 0.048487008
5.4930367 -4.9595652 0.048982382
5.4739432 -4.9577675 0.049050927
5.4678192 -4.9742951 0.047959089
5.460042 -4.9872322 0.047264278
5.4528503 -5.0043502 0.04617238
5.443985 -5.0167427 0.045576811
5.4278936 -5.0164309 0.046470165
5.4210691 -5.0343332 0.045279086
5.408041 -5.0400414 0.045477569
5.4050779 -5.0611935 0.043790162
5.3819776 -5.0524793 0.045775354
5.3744268 -5.0672436 0.044881999
5.3568316 -5.0642037 0.046073139
5.3447723 -5.0736609 0.045874596
5.3460269 -5.1045437 0.04309535
5.3455157 -5.1304507 0.037972987
5.3244424 -5.1236668 0.039668322
5.3117247 -5.1310854 0.039668322
5.2955904 -5.1303372 0.040565848
5.4120507 5.3210745 -0.0013529062
5.4369421 5.3358116 -0.0040232539
5.4506779 5.3277826 -0.0040232539
5.4485941 5.2940836 -0.00083935261
5.4607086 5.2869215 -0.00083935261
5.4797812 5.2891412 -0.0020718575
5.4928923 5.2813034 -0.0020718575
5.5034733 5.271544 -0.0017637014
5.5083885 5.2490654 -0.0017746091
5.5274692 5.2522411 -0.0031134486
5.5420237 5.2490382 -0.0036283731
5.5550251 5.2399101 -0.0035253763
5.5608654 5.2214622 -0.0021865964
5.5692196 5.2082715 -0.0014656782
5.5723162 5.1834393 0.00059401989
5.5945005 5.1912961 -0.0013626814
5.6032629 5.178875 -0.00074476004
5.6040773 5.1507535 0.0017268658
5.6194601 5.1466961 0.0012119412
5.6307096 5.1383247 0.0013149381
5.6434445 5.1301112 0.0013149381
5.6572175 5.1234932 0.0011089444
5.6492815 5.0857744 0.0049194098
5.6821508 5.1083541 0.0010059476
5.6733971 5.0676036 0.0051253438
5.6898246 5.0672054 0.0041984916
5.7163467 5.0787129 0.0016238689
5.7197895 5.0577097 0.0032716393
5.7302732 5.0483136 0.0034775734
5.7290893 5.0186315 0.0061551929
5.7552719 5.0313592 0.0034775734
5.7536068 5.0042658 0.0059492588
5.7918291 5.0322027 0.0012119412
5.8132195 5.0374918 -0.00053882599
7.4810085 -1.0492492 0.088786662
7.4811969 -1.0631249 0.088476896
7.4805984 -1.0758288 0.088270366
7.4971871 -1.091583 0.086205065
7.4858556 -1.103132 0.087134421
7.4680591 -1.1122355 0.088786662
7.4693427 -1.1248419 0.088373601
7.4607859 -1.1368747 0.088993192
7.457159 -1.148932 0.089096427
7.4498205 -1.1596465 0.089612782
7.4376521 -1.1707933 0.093149006
7.458456 -1.188875 0.090579033
7.4558778 -1.2001543 0.090579033
7.4348474 -1.2092109 0.092532218
7.4271541 -1.2207911 0.093046188
7.421556 -1.2318156 0.093354583
7.4175887 -1.244247 0.093457401
7.4239726 -1.259186 0.092429399
7.4258361 -1.2720327 0.091915429
7.4235349 -1.2854221 0.091812611
7.4139066 -1.2959464 0.092532218
7.4203844 -1.3099947 0.091504216
7.4283323 -1.3260231 0.090270638
7.3985128 -1.3313184 0.089644015
7.3776412 -1.3382955 0.091609538
7.3610792 -1.3478625 0.093057871
7.3963709 -1.3701246 0.088816404
7.4035802 -1.3845208 0.087678432
7.3934851 -1.3958387 0.088402569
7.3863072 -1.4074001 0.088816404
7.3962173 -1.4226255 0.087368071
7.3674655 -1.4281714 0.090161264
7.3695612 -1.4422743 0.089540541
7.3672223 -1.4541044 0.089437127
7.3644404 -1.467376 0.089333653
7.3637686 -1.4802201 0.089023292
7.338038 -1.4852352 0.091506124
7.3435559 -1.5009105 0.090471625
7.341867 -1.5134482 0.090264678
7.3440104 -1.5266235 0.089644015
7.3401079 -1.5395665 0.089644015
7.3160338 -1.5452993 0.091919899
7.3218036 -1.5595994 0.090885401
7.335434 -1.5779624 0.088919818
7.3363318 -1.5913789 0.088402569
7.3214531 -1.5998323 0.089644015
7.3119626 -1.6104693 0.090264678
7.3227873 -1.6276109 0.088609517
7.3181639 -1.6387677 0.088712931
7.3150496 -1.6514685 0.088609517
7.3202038 -1.6669009 0.087575018
7.2952189 -1.6713088 0.089954376
7.2946248 -1.6853592 0.089540541
7.3035116 -1.7015762 0.088092268
7.279418 -1.7061043 0.090368152
7.284236 -1.7220323 0.089333653
7.2975917 -1.7399056 0.087368071
7.2789626 -1.7461901 0.089023292
7.2689948 -1.7570322 0.089644015
7.2648301 -1.7688365 0.089644015
7.2644649 -1.7814643 0.08923018
7.2653852 -1.7961721 0.088609517
6.7849998 3.637687 0.033208311
7.2691727 -1.8114178 0.087678432
6.7720962 3.6088912 0.036221862
7.2468061 -1.8160901 0.089747429
6.8022642 3.6163471 0.033208311
7.2587318 -1.8343458 0.08788532
6.800591 3.596719 0.034663081
7.2348366 -1.8394148 0.087556303
6.8102384 3.5861988 0.03455919
7.249753 -1.8578005 0.085374057
6.8032041 3.5638404 0.036637485
7.2658963 -1.8783641 0.082983971
6.8192096 3.5576935 0.035702288
7.2342019 -1.8798356 0.086101472
6.8192611 3.5403566 0.036845326
7.2235718 -1.888664 0.086828887
6.8258066 3.5288494 0.037053168
7.230514 -1.9058259 0.085477948
6.8202929 3.5059092 0.039027572
7.2087898 -1.9108729 0.087452352
6.8356276 3.5005832 0.03918153
7.2053432 -1.9224191 0.087348461
6.8336082 3.4825349 0.040530026
7.2031279 -1.9360673 0.087036669
6.8633599 3.4868336 0.037729323
7.2183976 -1.955575 0.084750533
6.8453798 3.4559803 0.04125613
7.2157478 -1.9675093 0.084542692
6.8687377 3.4573421 0.03918153
7.2134075 -1.9812043 0.084230959
6.8605485 3.4327507 0.041463614
7.1977148 -1.9889731 0.085477948
6.8690281 3.4214766 0.041463614
7.1987295 -2.002398 0.0863626
6.878387 3.4122126 0.04125613
7.2000761 -2.0170765 0.085637152
6.8946099 3.4066839 0.04021883
7.186121 -2.0254745 0.086673498
6.9045863 3.3964794 0.040011406
7.1599855 -2.0276721 0.0891608
6.9037251 3.3796449 0.041152418
7.1558757 -2.0400507 0.089057148
6.902667 3.3613837 0.042397201
7.1633663 -2.0573235 0.087606251
6.8866272 3.3322942 0.045612812
7.1890736 -2.0813034 0.084082603
6.9028754 3.3280926 0.044471741
7.1649828 -2.0858326 0.086259007
6.9153962 3.3191466 0.044493437
7.1511097 -2.0935504 0.087295353
6.9311709 3.3138313 0.043457091
7.1445565 -2.1038394 0.087502599
6.9292374 3.2964981 0.044700742
7.1275883 -2.1112206 0.088849902
6.9392734 3.2857358 0.044493437
7.1279111 -2.1250255 0.088228047
6.9494548 3.2763872 0.044182539
7.1577129 -2.1513262 0.084186256
6.9402337 3.2540593 0.046358883
7.1477566 -2.1618125 0.084704459
6.9422064 3.2376976 0.047187984
7.1276517 -2.1666272 0.087471545
6.9714251 3.2416215 0.044389784
7.1342239 -2.1828153 0.086126685
6.9516549 3.2121861 0.047913432
7.11801 -2.1904023 0.087368071
6.9686899 3.2062941 0.046773434
7.1293845 -2.2099597 0.085402548
6.9733982 3.1925588 0.047187984
7.1234632 -2.2205644 0.085505962
7.0063634 3.1993747 0.043871641
7.0968204 -2.2227001 0.087988794
6.991744 3.1724982 0.046773434
7.1054163 -2.2410984 0.086333573
6.969769 3.1408339 0.050607979
7.0967875 -2.250407 0.086747408
7.0057297 3.149472 0.044186175
7.0892553 -2.2618799 0.086954296
6.9830918 3.1169338 0.048142016
7.0830035 -2.2728357 0.087057769
7.0091052 3.1181371 0.045747697
7.1006098 -2.294606 0.08436805
7.0194511 3.1095283 0.045331299
7.0728345 -2.2964108 0.086954296
7.0322914 3.1006041 0.044706643
7.0752473 -2.3115442 0.086023211
7.0201287 3.0766227 0.047205091
7.0725951 -2.3237021 0.08571291
7.0271368 3.0658505 0.047205091
7.0549517 -2.3302288 0.083536744
7.039887 3.0568712 0.046580493
7.0581264 -2.3458049 0.082495689
7.0463219 3.0450778 0.046684623
7.0606074 -2.3605263 0.081558764
7.0229783 3.0149078 0.050536394
7.0389023 -2.3649406 0.083432615
7.0593905 3.0209987 0.046892822
7.0287156 -2.3744662 0.083953142
7.0635591 3.0071566 0.04730922
7.0562468 -2.4018526 0.079997241
7.0432749 2.9792376 0.050744593
7.0295253 -2.403055 0.082495689
7.0621519 2.9747126 0.04928714
7.0313683 -2.4187047 0.081558764
7.0637155 2.9593501 0.050015867
7.0258489 -2.4294887 0.081558764
7.0679755 2.9469461 0.050328195
7.0127087 -2.43804 0.08239162
7.0738678 2.933686 0.050536394
7.0224223 -2.4572864 0.080517769
7.0882807 2.9268944 0.049599469
7.0236993 -2.4716465 0.079684973
7.0625892 2.8962884 0.053659439
7.0216489 -2.4860168 0.079164445
7.073328 2.8860686 0.053243041
7.0080128 -2.4931407 0.080101371
7.0918207 2.8817258 0.051785588
6.9766984 -2.4902437 0.084230959
7.0983806 2.8707891 0.051785588
6.9737272 -2.5040653 0.083815277
7.1015568 2.8559856 0.052306116
6.9677734 -2.5151596 0.083815277
7.1300573 2.8574219 0.049599469
6.9825277 -2.5368888 0.081321299
7.1139641 2.8331025 0.052410185
6.9836864 -2.5530722 0.080386102
7.0918803 2.8035829 0.056053758
6.9750605 -2.5627911 0.080697834
7.1085973 2.7980487 0.054804564
6.9581518 -2.5673559 0.082048714
7.1519442 2.8084695 0.050224066
6.9575019 -2.5825908 0.081321299
7.1120949 2.7689562 0.057108939
6.9112482 -2.5718718 0.086205363
7.1374626 2.7676616 0.054822803
6.9536624 -2.6094329 0.080282152
7.1260352 2.7465386 0.057004988
6.9446692 -2.6194904 0.080593944
7.1437907 2.7408185 0.055654109
6.9238281 -2.6228147 0.082360506
7.1623945 2.7355025 0.054199278
6.9161525 -2.6323891 0.082568288
7.1804824 2.7310383 0.052744448
6.9270792 -2.6543632 0.080386102
7.1458817 2.6953907 0.057836354
6.9255767 -2.6681199 0.077226281
7.1573668 2.6866868 0.05721283
6.918644 -2.6781726 0.077330649
7.1353955 2.6601648 0.060642064
6.9126005 -2.6905 0.077226281
7.1652079 2.6603169 0.057836354
6.9129004 -2.7053759 0.07639122
7.1646829 2.6450412 0.05866766
6.8740993 -2.6966584 0.080462098
7.1886387 2.6436291 0.056485415
6.8847089 -2.7187803 0.078270078
7.1876998 2.6269407 0.057420671
6.8715687 -2.725683 0.079105139
7.2006245 2.618897 0.055005252
6.8878312 -2.7495739 0.076286852
7.199718 2.6040683 0.055838823
6.8774381 -2.7593272 0.076704383
7.1917763 2.5837834 0.057610154
6.8523421 -2.759551 0.079000771
7.1964188 2.5707843 0.057818532
6.854331 -2.7749741 0.077956915
7.2134547 2.565444 0.056464016
6.8582258 -2.7928088 0.076599956
7.188736 2.5372095 0.060215056
6.8521404 -2.8045671 0.076495588
7.1958447 2.5255647 0.060110807
6.8408737 -2.8119276 0.078136623
7.2136841 2.5205863 0.058652103
6.8306174 -2.8210797 0.078553379
7.2345991 2.5159228 0.056880772
6.8055305 -2.8209217 0.080845654
7.2225962 2.4945147 0.059068859
6.8196297 -2.8441169 0.078240812
7.2343369 2.4863322 0.058339536
6.8065758 -2.852062 0.078970134
7.2215824 2.4641101 0.060631812
6.8120751 -2.870575 0.077407241
7.2395878 2.4584553 0.059173107
6.8055172 -2.8808532 0.077407241
7.2547493 2.4519095 0.05802691
6.7964778 -2.8913472 0.077615619
7.23912 2.4284415 0.05958581
6.7969337 -2.9067614 0.076677859
7.2588286 2.423507 0.057915747
6.7927346 -2.9185922 0.076365292
7.2363758 2.3986313 0.061255932
6.759223 -2.9131017 0.079699516
7.2538743 2.3914313 0.059898973
6.773387 -2.9375455 0.076990426
7.2542763 2.3771362 0.060525239
6.7593827 -2.9429181 0.077928185
7.2360024 2.3545611 0.063343585
6.7485805 -2.9521942 0.078345001
7.2674723 2.3539193 0.060316503
6.7412715 -2.9631698 0.078345001
7.2925954 2.3507154 0.058020115
6.761107 -2.9911399 0.074906528
7.2697787 2.3261738 0.0613603
6.743237 -2.9950862 0.076261103
7.2816639 2.3167429 0.060629666
6.7510886 -3.0164046 0.074281394
7.2697234 2.2962952 0.062717259
6.7281489 -3.0156031 0.076365292
7.2864113 2.2902074 0.0613603
6.7019739 -3.0143199 0.078761756
7.3002119 2.2810192 0.060420871
6.7051921 -3.0319235 0.077407241
7.3029494 2.2679288 0.060734034
6.719018 -3.0563271 0.07469815
7.2992392 2.2525287 0.06177783
6.6808777 -3.0465636 0.078657568
7.3165145 2.2448318 0.060420871
6.7014675 -3.0764406 0.075010717
7.3031783 2.2246394 0.062612891
6.6769624 -3.0741749 0.077303052
7.2993402 2.2093039 0.063656688
6.6714344 -3.0870678 0.076990426
7.3263264 2.2058029 0.061151564
6.6807046 -3.1092491 0.074802339
7.3146181 2.1864972 0.063134789
6.6791286 -3.1231747 0.074072957
7.3044233 2.1685057 0.064909279
6.6679401 -3.1321259 0.074489772
7.320663 2.1602442 0.063656688
6.6593952 -3.1423311 0.074593961
7.3098888 2.1409798 0.065535545
6.6152725 -3.1254597 0.079491138
7.3281565 2.1352186 0.063969851
6.6263604 -3.1498327 0.076990426
7.3584638 2.1333146 0.061047196
6.6271734 -3.1668174 0.075844288
7.3233786 2.1039782 0.06574434
6.6285338 -3.1830039 0.07469815
7.3218694 2.0899076 0.066474974
6.628149 -3.1998682 0.073656201
7.328094 2.0773797 0.066370606
6.6142969 -3.2054946 0.074489772
7.3554683 2.0746067 0.063761055
6.6069679 -3.2153163 0.074489772
7.3232846 2.0480888 0.068040729
6.6049051 -3.2310145 0.073656201
7.358223 2.0471649 0.064596117
6.6127033 -3.2529311 0.071572304
7.3711672 2.038383 0.063656688
6.5851598 -3.2474821 0.074281394
7.3586421 2.0199902 0.065639973
6.5598254 -3.2454927 0.07657367
7.3791423 2.013056 0.063865483
6.5888987 -3.2838287 0.06951946
7.3730431 1.9967265 0.065118015
7.3956633 1.9921877 0.063030422
7.3572598 1.9623089 0.068040729
7.3401294 1.9419398 0.070545852
7.2884469 1.9085367 0.077017486
5.5605965 -4.5164404 0.04666853
5.5533371 -4.529983 0.045931339
5.5510845 -4.5506449 0.044246376
5.5440226 -4.5627766 0.043614447
5.5339403 -4.5734339 0.043298542
5.5113573 -4.5643554 0.045510113
5.4948111 -4.5628662 0.04666853
5.4929905 -4.5853887 0.044772923
5.4798522 -4.5897279 0.045194149
5.4759197 -4.6065516 0.043930411
5.4651432 -4.6162543 0.043719769
5.4476004 -4.614078 0.044983506
5.4440842 -4.6316805 0.043614447
5.4353919 -4.6445355 0.042982578
5.4174099 -4.6425352 0.044246376
5.4254599 -4.6768193 0.040665746
5.4107375 -4.6807323 0.041192293
5.3975267 -4.6859317 0.041508257
5.3841429 -4.6888838 0.042034805
5.383606 -4.7135568 0.039823234
5.3755951 -4.7268338 0.039086044
5.366868 -4.7370696 0.038664818
5.3405561 -4.7227893 0.041508257
5.3318915 -4.7340608 0.04098165
5.3251977 -4.7474942 0.040139198
5.3083162 -4.7478013 0.041086972
5.3124228 -4.7795982 0.037927628
5.3066015 -4.7946663 0.036874473
5.2860794 -4.7891107 0.038559496
5.2777038 -4.801116 0.037927628
5.2783575 -4.8269081 0.035505414
5.2430711 -4.7969141 0.037567556
5.2452321 -4.8273931 0.034605801
5.2441826 -4.8506985 0.032490253
5.2216816 -4.8404212 0.03471154
5.2111588 -4.8500881 0.034394205
5.2059817 -4.8667035 0.033124864
5.1998382 -4.8849797 0.031749785
5.1955347 -4.9043856 0.030163109
5.1764898 -4.8975124 0.031855583
5.1697006 -4.9149184 0.030586243
5.2470379 5.0375504 -0.00093990564
5.2658691 5.0400743 -0.002240479
5.2759476 5.0297561 -0.0012507439
5.266264 4.9870391 0.0034056902
5.3028564 5.0195246 -0.0017921925
5.3033872 4.9932394 0.00069844723
5.3113179 4.9805851 0.0014564991
5.3221307 4.9695573 0.0018896461
5.3429985 4.9762225 4.8696995e-05
5.3478489 4.9596472 0.0013481975
5.3499622 4.9344707 0.0036222935
5.3657537 4.9327421 0.0028642416
5.3642607 4.9051437 0.0055715442
5.3846245 4.9107766 0.0038388968
5.3911266 4.8941288 0.005030036
5.4204173 4.9158473 0.0012398958
5.4194684 4.8863854 0.0024006963
5.4305897 4.8781767 0.0025092959
5.4354715 4.8612466 0.0038120747
5.4521799 4.8597522 0.0029435158
5.4579601 4.8433194 0.004137814
5.4595165 4.8214903 0.0060920715
5.4676733 4.8069057 0.0069606304
5.4961796 4.8253541 0.0034863949
5.5088205 4.8205128 0.0031606555
5.5126305 4.7993646 0.0048977733
5.5202913 4.7861009 0.0056577921
5.5371008 4.7865281 0.0045720935
5.5804424 4.8252106 -0.0017249584
7.231884 -1.249356 0.081124067
7.2211733 -1.2601051 0.081994057
7.242527 -1.2785144 0.079166412
7.2142596 -1.2832377 0.082102835
7.2176824 -1.2970932 0.081341565
7.2126207 -1.3087485 0.081559062
7.2115312 -1.3204513 0.081341565
7.1875429 -1.3275113 0.083734155
7.1844087 -1.3391216 0.083734155
7.1692042 -1.3469293 0.085147977
7.17138 -1.3609726 0.084495485
7.1829653 -1.3766749 0.081309795
7.1639633 -1.3833385 0.083163381
7.1753669 -1.4000633 0.081418812
7.1599321 -1.408164 0.08283627
7.1716528 -1.4235637 0.081091702
7.1503196 -1.4308884 0.083163381
7.1505246 -1.4439681 0.082727194
7.1528287 -1.4566889 0.082073033
7.1455288 -1.4675603 0.08250916
7.1372752 -1.4781229 0.083054304
7.1097884 -1.4817822 0.08588922
7.1375341 -1.5038395 0.08218205
7.1237836 -1.5121601 0.083381414
7.1194239 -1.5228686 0.083490491
7.1003571 -1.530431 0.073162496
7.111526 -1.5465481 0.071380734
7.1098609 -1.5581126 0.071157992
7.1040316 -1.5698509 0.071380734
7.1141491 -1.5857828 0.069710314
7.1068602 -1.5955448 0.07015574
7.124876 -1.6152182 0.067483127
7.105413 -1.6214378 0.06937623
7.0730791 -1.6232271 0.072828412
7.0856128 -1.6406443 0.070823908
7.0916667 -1.6559286 0.069598973
7.0924869 -1.6684387 0.069042146
7.084712 -1.6789975 0.069487631
7.081491 -1.6911366 0.06937623
7.0750203 -1.701108 0.079448044
7.0569577 -1.7084608 0.08109051
7.0757389 -1.727967 0.078353047
7.0517368 -1.7315838 0.080762029
7.0555086 -1.7467654 0.079776525
7.0541015 -1.7590632 0.079448044
7.05374 -1.7712495 0.07901001
7.0464783 -1.7824218 0.079338551
7.0549693 -1.7984762 0.077805519
6.592072 3.3791597 0.035100579
7.0263753 -1.8000343 0.080762029
6.596725 3.3669739 0.035538614
7.0163264 -1.8100777 0.081418991
6.6061254 3.3565459 0.03542912
7.0209208 -1.8252075 0.080323994
6.5983243 3.3334012 0.037728608
7.0131474 -1.8345668 0.080762029
6.5851998 3.3075688 0.040685117
7.0339365 -1.8560812 0.077696025
6.5826011 3.2886963 0.042218089
7.0240412 -1.8656812 0.079317629
6.5953455 3.2816546 0.041561067
7.0107713 -1.872879 0.080410779
6.6182642 3.2836213 0.039371073
7.0149875 -1.8885522 0.079317629
6.6204963 3.2678523 0.040247083
6.9970002 -1.8943241 0.080957353
6.6259313 3.2558353 0.040575564
6.9953871 -1.906121 0.080629408
6.6418905 3.2523766 0.039371073
6.9949975 -1.9199903 0.080082834
6.6230111 3.2209194 0.043203592
6.9877496 -1.930033 0.080410779
6.634553 3.2135417 0.042656064
6.984252 -1.9410877 0.080301464
6.6606998 3.2175689 0.041057825
6.9927192 -1.9586854 0.07866174
6.6353273 3.1816626 0.045758307
6.9692731 -1.9619598 0.080957353
6.6616783 3.1851132 0.043134809
6.9719596 -1.9756153 0.080082834
6.6705055 3.1763077 0.042916179
6.979403 -1.9928999 0.078552425
6.6833639 3.1685066 0.042260289
6.9744849 -2.0044537 0.078552425
6.6699228 3.1423633 0.045211732
6.9582696 -2.0095749 0.077564836
6.6838841 3.1379004 0.044227958
6.9744906 -2.0307696 0.074930131
6.699038 3.1317205 0.043244123
6.9614716 -2.0388212 0.075918138
6.6909361 3.109623 0.045430362
6.9328327 -2.0389223 0.078882158
6.695642 3.0979295 0.045758307
6.9491043 -2.0597668 0.076247454
6.7016988 3.0859523 0.045976937
6.953773 -2.0755804 0.075039923
6.7124968 3.0772977 0.045539677
6.9233556 -2.0746965 0.078223467
6.7187099 3.0666795 0.045648992
6.9321918 -2.0929248 0.076467037
6.7320614 3.0591359 0.043860555
6.9351778 -2.1075265 0.075479031
6.7241263 3.0381596 0.045941055
6.929492 -2.117687 0.075588763
6.738255 3.0329998 0.044955611
6.924942 -2.1299601 0.075479031
6.7476301 3.022701 0.044736564
6.923409 -2.1425669 0.075039923
6.7371211 3.0001669 0.047145605
6.9176455 -2.152694 0.075149655
6.7318811 2.981915 0.048788071
6.9165182 -2.1665881 0.074600756
6.7459693 2.9748616 0.047912061
6.9096665 -2.1767426 0.075304389
6.7594867 2.9686015 0.047036052
6.9073353 -2.1884935 0.074975371
6.7533059 2.9498501 0.048788071
6.8859558 -2.1927843 0.076949716
6.7819266 2.9523079 0.045941055
6.885788 -2.206624 0.076291561
6.7778468 2.9337821 0.047474086
6.8903694 -2.2217147 0.075085044
6.7650208 2.9108431 0.050102055
6.8883715 -2.2347422 0.074646294
6.7738276 2.9008648 0.049883068
6.8741331 -2.2418053 0.075743139
6.7997351 2.9019101 0.047364593
6.8690219 -2.2522278 0.075743139
6.7840533 2.8773358 0.047790587
6.8736782 -2.2691054 0.074426949
6.7799697 2.8585179 0.049330115
6.8691564 -2.2803934 0.074317217
6.8047686 2.8593161 0.046910882
6.8630881 -2.2903693 0.074426949
6.8235826 2.8568137 0.045261383
6.8338151 -2.2902696 0.077388465
6.81282 2.8338485 0.047680616
6.8309703 -2.3023462 0.077059388
6.8220067 2.8246667 0.047350764
6.8542452 -2.3272202 0.073439777
6.8234911 2.8112774 0.048010528
6.8534517 -2.3415518 0.072781622
6.8240838 2.7955861 0.048890233
6.83323 -2.3447893 0.074646294
6.8323636 2.785852 0.048670352
6.8252978 -2.3537755 0.074975371
6.8494649 2.7820935 0.047240794
6.8261361 -2.368969 0.074097872
6.8201041 2.7482352 0.05207926
6.8153524 -2.3770008 0.074755967
6.8515272 2.752558 0.048780262
6.8105612 -2.3881695 0.074646294
6.8563876 2.7407413 0.049000204
6.7960911 -2.3947439 0.075743139
6.8723021 2.7349586 0.047790587
6.7876043 -2.4044659 0.076072216
6.8748722 2.7211773 0.04834044
6.7881002 -2.4179072 0.075304389
6.8785567 2.7092581 0.048670352
6.7938395 -2.4358768 0.073768795
6.885489 2.6975055 0.048670352
6.7812314 -2.4428277 0.074646294
6.8818293 2.6807294 0.049989879
6.7935319 -2.4628224 0.072342873
6.8837333 2.6678364 0.050539732
6.7897573 -2.4757421 0.072013855
6.8855181 2.6531563 0.051199496
6.7702904 -2.4788716 0.073768795
6.901897 2.6480639 0.049879968
6.7849312 -2.500361 0.07064873
6.9096036 2.6385286 0.049660027
6.7438035 -2.492403 0.075149655
6.8952646 2.6147044 0.052409112
6.7446408 -2.5067577 0.074271441
6.9039912 2.6052165 0.05207926
6.7515841 -2.5240571 0.072624743
6.9023032 2.5904315 0.053068936
6.7324557 -2.5282552 0.074271441
6.9360313 2.5937698 0.049550056
6.7365475 -2.5445619 0.072954118
6.9303002 2.5761509 0.051089585
6.7315803 -2.5551517 0.072844326
6.9225693 2.5580745 0.052848995
6.7141037 -2.5601788 0.074271441
6.9257083 2.5443394 0.053288877
6.7186694 -2.5774236 0.072844326
6.9183478 2.5254626 0.055048287
6.7253437 -2.5948479 0.071197629
6.9402881 2.5237274 0.052958965
6.718925 -2.6057665 0.071197629
6.9294252 2.5030351 0.055158257
6.6991243 -2.6087511 0.072954118
6.9449911 2.4966414 0.053948641
6.678165 -2.6098275 0.074930131
6.955801 2.4887855 0.053288877
6.6990671 -2.6375935 0.072768509
6.9535904 2.472286 0.054388523
6.6828203 -2.6420174 0.074082553
6.9637332 2.4634893 0.05383867
6.6942172 -2.6625588 0.071783006
6.9530039 2.444284 0.055927992
6.6890335 -2.6748264 0.071564019
6.9403195 2.4224722 0.058347225
6.6892905 -2.6892939 0.070688009
6.9529438 2.4150155 0.05746752
6.6666245 -2.6891119 0.072878063
6.9817185 2.4164007 0.054498494
6.639092 -2.6875212 0.075615525
6.9775281 2.3990753 0.055818021
6.6425834 -2.7039692 0.074301541
6.9658074 2.3791029 0.057022452
6.6413441 -2.7169473 0.073644519
7.0127673 2.3894901 0.051735222
6.6466808 -2.7358229 0.072002053
6.9928646 2.3643134 0.055039763
6.6390915 -2.746026 0.072111547
6.9960761 2.3514116 0.055370212
6.6434636 -2.7626789 0.070688009
7.0240088 2.3519228 0.052506268
6.6194615 -2.7624097 0.072987556
6.9897714 2.3204825 0.057573259
6.6150737 -2.7746387 0.072659016
7.0033178 2.3127367 0.056581855
6.6297851 -2.7980733 0.068343401
7.0434518 2.3190227 0.05217582
6.6057758 -2.7976456 0.07064873
7.0299454 2.2979841 0.054599166
6.5947914 -2.8056104 0.071197629
7.0347209 2.2858706 0.054709315
6.6029811 -2.8249795 0.069221616
6.9944005 2.2532752 0.060437143
6.6046262 -2.8418841 0.068014026
6.9940181 2.2383068 0.061208248
6.5760384 -2.8375978 0.070978105
6.9677281 2.2122211 0.065173686
6.5848918 -2.8575685 0.0688923
6.5856028 -2.87395 0.067794502
7.0354662 2.2162299 0.057517231
6.5658932 -2.8754296 0.069550931
6.5561123 -2.8829622 0.069990039
6.5470972 -2.8927684 0.070209622
6.5570216 -2.9143591 0.067904294
6.5351796 -2.9135923 0.069990039
6.540453 -2.9332767 0.068233609
6.5202684 -2.9347351 0.06803757
6.5095878 -2.9415598 0.068588316
6.5205603 -2.9647796 0.066054881
6.5092592 -2.9723852 0.066605628
6.5016766 -2.9814043 0.066715777
6.4979587 -2.9949825 0.06616503
6.4971342 -3.0094633 0.065283835
6.4839625 -3.0144737 0.06616503
6.4557915 -3.0103695 0.069028914
6.4705777 -3.0362294 0.065944731
6.4699011 -3.0503094 0.065063536
6.4558072 -3.0563803 0.065944731
6.4493108 -3.0668092 0.065834582
6.4446373 -3.0779896 0.065504134
6.4197168 -3.0758786 0.068903863
5.3945389 -4.3739262 0.03720957
5.3867474 -4.38412 0.03676486
5.3688121 -4.3824248 0.038098991
5.3640094 -4.3987365 0.036876082
5.3522892 -4.4032803 0.03720957
5.3468447 -4.4187784 0.036097825
5.3331556 -4.4222441 0.036653697
5.3094339 -4.4090295 0.039433062
5.3102884 -4.4339232 0.034949064
5.305768 -4.4509826 0.033610523
5.2842798 -4.440836 0.035952985
5.2948122 -4.4815955 0.03137958
5.2755795 -4.4756994 0.033164322
5.2632036 -4.4791932 0.033610523
5.2627954 -4.5038047 0.03126806
5.2515249 -4.5099788 0.03137958
5.2411985 -4.5166616 0.03137958
5.2410927 -4.5421133 0.028925538
5.2177281 -4.5294242 0.031602681
5.2011142 -4.5262022 0.032941222
5.1956716 -4.5434313 0.031602681
5.1911087 -4.5612111 0.030152559
5.1765518 -4.5611725 0.03104496
5.1637011 -4.565752 0.03137958
5.1569648 -4.5801992 0.030375659
5.1535916 -4.5982342 0.028814018
5.1366849 -4.5972195 0.029929459
5.1181593 -4.5914707 0.031602681
5.1302404 -4.6352019 0.026583076
5.1162987 -4.6390786 0.027029276
5.105731 -4.6465473 0.026917756
5.0931063 -4.649559 0.027363896
5.0860662 -4.6650162 0.026248455
5.0744457 -4.6707435 0.026359975
5.0657101 -4.6803679 0.025913835
5.0497494 -4.6806941 0.026806176
5.0488224 -4.7059054 0.024352133
5.1077857 4.7951899 -0.0040019155
5.102077 4.7581205 0.0001142025
5.1208076 4.7651439 -0.0017151833
5.1326141 4.7582016 -0.0017151833
5.1256046 4.7195315 0.0026295781
5.1527853 4.7406049 -0.0011435151
5.1629868 4.7299862 -0.00068616867
5.1707492 4.7173972 0.0001142025
5.1860619 4.7183409 -0.00091481209
5.203248 4.719244 -0.002058208
5.1997609 4.6883397 0.00073319674
5.1992912 4.6635857 0.0032506585
5.2179279 4.6668911 0.0017631054
5.235199 4.6698623 0.00038993359
5.2469063 4.6648369 0.00016105175
5.2423677 4.631041 0.0038228035
5.2652545 4.6418233 0.0013053417
5.2685785 4.62363 0.0029073954
5.2836905 4.6220388 0.0021063685
5.2956638 4.6155071 0.0019919276
5.291997 4.5867114 0.0050815344
5.2906685 4.5598307 0.0078278184
5.3131075 4.5695124 0.0054247975
5.3379359 4.5845475 0.0023352504
5.3694429 4.6066103 -0.0029515624
6.8724589 -1.4225993 0.082009614
6.8821964 -1.4370506 0.080394566
6.8647842 -1.4440103 0.082124949
6.9250288 -1.4754629 0.074165165
6.9179845 -1.4848261 0.074626625
6.9234233 -1.4996369 0.073473036
6.9134202 -1.5085189 0.07428056
6.8786573 -1.5087874 0.078202724
6.8922997 -1.5262971 0.076010942
6.9080138 -1.5436242 0.073588371
6.8741655 -1.5439603 0.07739526
6.8837404 -1.560256 0.073366642
6.8901458 -1.5745764 0.072092593
6.886569 -1.5850375 0.072092593
6.8898478 -1.5993333 0.071165979
6.883316 -1.609271 0.071513474
6.8567882 -1.611681 0.074409068
6.8599792 -1.625953 0.073482454
6.8651075 -1.6404705 0.072324216
6.8778038 -1.6567805 0.070239425
6.846375 -1.658169 0.073714137
6.8386478 -1.6680613 0.074177444
6.8539667 -1.6854343 0.071745098
6.8496552 -1.6971085 0.071745098
6.8401856 -1.7058718 0.072440088
6.8481569 -1.7206755 0.071395934
6.8265266 -1.7258027 0.073594809
6.8360267 -1.7417357 0.071858823
6.8411164 -1.7555521 0.07070154
6.8067851 -1.7556303 0.074520648
6.4062276 3.1678896 0.032857537
6.8179817 -1.77232 0.072553217
6.4037557 3.1504529 0.034362018
6.8166585 -1.7836783 0.07220602
6.4093957 3.1399195 0.034593463
6.7967653 -1.7891872 0.07417345
6.4184022 3.1301095 0.036442757
6.813972 -1.8089068 0.071395934
6.433085 3.1252091 0.035404563
6.8134561 -1.8206372 0.070932984
6.395298 3.0819247 0.042095363
6.8026743 -1.8292332 0.071743131
6.439364 3.0991611 0.036673486
6.8089409 -1.8447356 0.070354342
6.4120402 3.0628388 0.041864634
6.7957711 -1.851331 0.071511626
6.4260244 3.0586696 0.04082644
6.7730541 -1.8554301 0.073366642
6.4393225 3.0521209 0.040018916
6.7874575 -1.8738635 0.070934355
6.4465647 3.0422919 0.040018916
6.7849817 -1.884836 0.070702732
6.4691496 3.0442891 0.03771174
6.7596025 -1.8876677 0.073366642
6.4644032 3.0244679 0.039557457
6.7578044 -1.8993871 0.073019207
6.4613671 3.0071871 0.04105711
6.7829089 -1.9221108 0.069196999
6.4745126 3.0022349 0.040134251
6.7646227 -1.9278529 0.070934355
6.4790506 2.9892683 0.04059571
6.767169 -1.94153 0.070007741
6.4971032 2.9871562 0.038002253
6.7663045 -1.9532564 0.069544435
6.4730597 2.955708 0.042508483
6.7311096 -1.9514551 0.073482454
6.4853859 2.9483583 0.041815221
6.7530909 -1.9737225 0.070007741
6.4796801 2.9295061 0.043663919
6.7273297 -1.9744158 0.072787523
6.4950957 2.9260852 0.042392969
6.7302361 -1.989326 0.071745098
6.5049801 2.9169841 0.042046309
6.7447772 -2.0090208 0.069196999
6.5081854 2.9038424 0.042624056
6.7426491 -2.0202558 0.066996574
6.505208 2.887656 0.04401058
6.7288418 -2.0271943 0.068158507
6.5147314 2.8789115 0.043663919
6.7256007 -2.0389326 0.067926168
6.5354619 2.8777728 0.041699648
6.723597 -2.0502338 0.067577541
6.5379987 2.8653984 0.042277396
6.721858 -2.0632055 0.067112803
6.5179839 2.8361182 0.046205938
6.6888604 -2.0605416 0.07083106
6.5504932 2.8433652 0.042508483
6.7096047 -2.0825193 0.067461371
6.556159 2.8331366 0.042624056
6.6893711 -2.0867562 0.069436669
6.5617952 2.8211472 0.042855144
6.7071719 -2.1080256 0.066415608
6.5571485 2.8035543 0.044472754
6.7023687 -2.1180642 0.066415608
6.5667734 2.795975 0.04401058
6.6908255 -2.1263916 0.067228973
6.579617 2.7887371 0.043201745
6.6788011 -2.1334183 0.068158507
6.5789056 2.7738228 0.044241667
6.6765523 -2.1446693 0.067809939
6.5974393 2.7719541 0.042508483
6.6980219 -2.1691546 0.064207852
6.5776029 2.7436464 0.046321452
6.6833062 -2.1753716 0.067343831
6.577826 2.7289064 0.04724586
6.6488366 -2.1706562 0.07128185
6.6045003 2.7321477 0.044357181
6.6564789 -2.1879027 0.069544435
6.6145144 2.7235854 0.043895006
6.6519413 -2.1990871 0.069428623
6.6146569 2.7088008 0.044819415
6.6382809 -2.2046123 0.07058686
6.6241093 2.7010179 0.044357181
6.6403985 -2.2196941 0.069544435
6.6260786 2.6868539 0.045050502
6.648066 -2.2366345 0.067807078
6.6167712 2.6668932 0.04724586
6.6395206 -2.2447567 0.068270385
6.6111259 2.6498508 0.047422111
6.6199946 -2.2487197 0.070123553
6.6418991 2.6534553 0.04406321
6.6009045 -2.2517796 0.071976781
6.640728 2.6386087 0.045105636
6.6034951 -2.2656338 0.070934355
6.6201777 2.6126535 0.048811972
6.6216817 -2.2893531 0.067691267
6.6285224 2.6025693 0.048580348
6.6205235 -2.3018816 0.067112148
6.6380157 2.5942783 0.048117042
6.5973191 -2.3021142 0.069544435
6.6555824 2.5913265 0.046495497
6.6006088 -2.3180728 0.066415608
6.6647139 2.5816329 0.046148062
6.6061859 -2.334275 0.064905047
6.6532755 2.5609417 0.048580348
6.6066012 -2.3477349 0.064091682
6.6852875 2.5657773 0.044989824
6.5999489 -2.3578923 0.064207852
6.6857386 2.5515304 0.045800567
6.5898752 -2.3661592 0.064788878
6.6341 2.5072043 0.053792417
6.5658188 -2.3655896 0.067345142
6.6557698 2.5065069 0.051591754
6.5836878 -2.3893275 0.064091682
6.6518397 2.4899702 0.052981615
6.5524082 -2.3856697 0.067577541
6.5925808 -2.4210589 0.06130296
6.5652785 -2.4200978 0.064207852
6.5468922 -2.4230094 0.065950811
6.5379992 -2.4307494 0.066415608
6.5334396 -2.4425719 0.066183209
6.5335054 -2.4560161 0.065369844
6.534555 -2.4695325 0.063974977
6.5349059 -2.4843009 0.063044667
6.4989319 -2.476614 0.067231059
6.5082951 -2.4950721 0.065137863
6.5018878 -2.5058486 0.065137863
6.4965239 -2.5167089 0.065021574
6.4982543 -2.5307667 0.063974977
6.5019469 -2.5471506 0.062579513
6.4832292 -2.5499423 0.064323843
6.4798894 -2.5609839 0.063974977
6.4708366 -2.5701609 0.064323843
6.4696708 -2.5831139 0.063626111
6.4588366 -2.5895288 0.064323843
6.4735503 -2.6135602 0.061300337
6.443541 -2.6084714 0.064672709
6.4490571 -2.6251619 0.063044667
6.4455853 -2.6378677 0.062579513
6.4482956 -2.6534448 0.061300337
6.4348989 -2.6581657 0.062346935
6.4256277 -2.667172 0.062695801
6.4222813 -2.6794577 0.062230647
6.410738 -2.6847353 0.063044667
6.4184251 -2.704845 0.060951471
6.395555 -2.7043061 0.063277245
6.3958421 -2.7179177 0.062346935
6.3931499 -2.7307069 0.061765492
6.3823686 -2.7380946 0.062346935
6.3829308 -2.7519817 0.057093918
6.3838825 -2.7678761 0.055922627
6.3756957 -2.7764637 0.056156874
6.3685551 -2.7851894 0.056273997
6.3510203 -2.7884514 0.057796657
6.3451834 -2.7986045 0.057679534
6.3308353 -2.8022692 0.058850765
6.3315763 -2.8181448 0.057679534
6.3542099 -2.8483407 0.053345859
6.3302875 -2.8452523 0.055922627
6.3142834 -2.8493874 0.057211041
6.3017101 -2.8553343 0.058030903
6.3007007 -2.8683968 0.057211041
6.3006763 -2.8833632 0.056156874
6.3000011 -2.8979106 0.057095349
6.275363 -2.8938711 0.059780657
6.2350855 -2.8799646 0.064684331
5.2135983 -4.2033005 0.033065677
5.2046709 -4.2117715 0.032831252
5.2043028 -4.2319741 0.030838549
5.1982937 -4.2465959 0.029783547
5.1839743 -4.2480726 0.030604064
5.1800518 -4.2623839 0.02943188
5.1572504 -4.251965 0.032010734
5.1450996 -4.2565451 0.032362342
5.1534986 -4.2905045 0.028376937
5.1391373 -4.2918243 0.029197454
5.1359076 -4.310153 0.027556419
5.1232743 -4.3123045 0.026182771
5.1190004 -4.3300805 0.02465409
5.0913963 -4.3097992 0.028534591
5.101356 -4.3471642 0.02406615
5.0761309 -4.3321943 0.027241111
