# .PCD v0.7 - Point Cloud Data file format
VERSION 0.7
FIELDS x y z
SIZE 4 4 4
TYPE F F F
COUNT 1 1 1
WIDTH 1571
HEIGHT 1
VIEWPOINT 0 0 0 1 0 0 0
POINTS 1571
DATA ascii
-7.8649769 27.73748 8.6905327
-7.7890525 27.729803 8.6784105
-7.7099628 27.739075 8.6700344
-7.6169839 27.698143 8.6474323
-7.5257945 27.634449 8.6194687
-7.4438281 27.633175 8.6081142
-7.3622103 27.622042 8.5854664
-7.2891259 27.61931 8.5749607
-7.2013898 27.589582 8.5558472
-7.0953803 27.502239 8.5201092
-7.0233588 27.500626 8.510025
-6.9157448 27.414446 8.4743614
-6.8286786 27.372837 8.4524221
-122.57428 23.945438 23.78397
-6.7512741 27.351677 8.4368124
-116.60691 23.082005 22.774839
-6.6629577 27.323006 8.4178886
-6.5782695 27.286047 8.3974171
-110.22482 22.427822 21.719187
-6.4953909 27.244383 8.3760328
-154.17696 31.502438 30.086288
-6.4088554 27.218536 8.3580484
-157.50027 32.595615 30.816687
-6.3238077 27.177221 8.3364611
-6.2384729 27.123987 8.3119049
-6.1534543 27.098429 8.2855558
-6.0764999 27.091547 8.2735376
-6.000514 27.06745 8.2574215
-168.50546 36.969601 33.416592
-5.9173541 27.037491 8.238904
-5.8384891 27.021797 8.2244682
-5.7680693 27.015215 8.2134056
-5.6838088 26.988976 8.1956587
-5.6052642 26.961861 8.1784639
-5.5243664 26.914669 8.156023
-5.4344106 26.864033 8.1315222
-181.56226 43.081646 36.723232
-5.3652306 26.869017 8.1234732
-5.2915192 26.845745 8.1078768
-184.48555 44.68671 37.520519
-5.2075109 26.814428 8.0889244
-5.1388068 26.819759 8.0810289
-5.0569363 26.762093 8.0558901
-4.9767694 26.742867 8.0404272
-89.49202 22.973673 18.932199
-4.9053931 26.735729 8.0291147
-89.296288 23.156483 18.948637
-4.8286896 26.706444 8.0116463
-4.7607331 26.723423 8.0067196
-4.6836882 26.70266 7.991303
-4.6091623 26.668415 7.9729114
-4.5292149 26.64514 7.9564915
-123.46709 33.404629 26.155981
-4.4539919 26.617561 7.9396472
-123.43902 33.718468 26.227535
-158.02448 42.965549 33.29982
-4.3910718 26.630478 7.9344029
-4.3046451 26.576223 7.9095063
-4.2309756 26.552629 7.8938532
-4.1563621 26.511641 7.8737993
-4.0860825 26.521515 7.8529949
-4.0194707 26.52774 7.8456235
-3.9514968 26.514751 7.8333583
-3.8680553 26.466482 7.8103738
-3.7941267 26.436163 7.7930646
-3.7302198 26.440165 7.7855134
-3.6521966 26.414328 7.7687588
-3.5817704 26.411743 7.7587237
-3.5115728 26.382854 7.7422681
-3.4436853 26.391941 7.7354379
-3.3680828 26.361019 7.7177644
-3.3059568 26.371433 7.7120309
-3.2231882 26.314699 7.6870708
-3.1563895 26.31325 7.6778059
-93.758736 30.332487 21.233208
-3.0879283 26.282946 7.650363
-93.78479 30.583231 21.297245
-3.0124915 26.261755 7.6351194
-2.9434752 26.24584 7.622025
-2.8825135 26.259924 7.617353
-2.7998602 26.194431 7.5903006
-2.7336199 26.191931 7.5808649
-2.6659079 26.164566 7.5651441
-2.5964243 26.172939 7.5579429
-2.5220602 26.134983 7.538744
-2.4571831 26.105682 7.5229297
-84.420952 29.707148 19.76746
-2.3833554 26.084589 7.507935
-84.072006 29.83732 19.750082
-2.3140886 26.074976 7.4963608
-84.042053 30.067617 19.801407
-2.2441409 26.026003 7.4750557
-83.737442 30.183447 19.786774
-2.1694057 25.977722 7.4532838
-2.1003432 25.969137 7.44733
-2.0370586 25.960741 7.4368505
-1.9652146 25.945972 7.4236708
-64.519707 24.192411 15.657972
-1.8944767 25.901167 7.4032755
-64.531326 24.377367 15.704197
-1.8333043 25.905384 7.3961725
-64.495689 24.538151 15.737996
-1.7650887 25.914408 7.3893127
-64.431274 24.710196 15.770495
-1.6964641 25.881248 7.3720565
-64.461098 24.902863 15.821132
-1.6334497 25.870012 7.3609233
-64.468842 25.080473 15.865057
-1.551339 25.767881 7.3249655
-1.486675 25.760422 7.3145409
-1.4193137 25.709272 7.293046
-64.402702 25.610617 15.983727
-1.3473196 25.680616 7.2764516
-64.322075 25.77742 16.012722
-1.2792038 25.661736 7.2627716
-1.2157632 25.638226 7.2485781
-64.29039 26.132336 16.09395
-1.1490113 25.640451 7.2533607
-64.394844 26.365124 16.164715
-1.0800922 25.610723 7.236897
-64.419624 26.567228 16.216959
-1.0176189 25.592377 7.2240877
-64.267853 26.684309 16.224039
-0.94585812 25.556038 7.2056246
-0.87841165 25.510397 7.1854501
-64.281204 27.075527 16.320353
-0.81834102 25.511324 7.1776996
-64.322693 27.271177 16.373383
-0.74714613 25.474428 7.1591787
-64.243347 27.446228 16.368265
-0.68093532 25.434858 7.1406631
-64.341637 27.673883 16.436863
-0.61998755 25.423084 7.1296787
-71.920639 31.021734 18.298626
-74.909081 32.270836 19.015602
-0.55105186 25.404484 7.1159568
-74.302216 32.250797 18.92638
-0.48505339 25.360636 7.0964222
-73.736122 32.227627 18.842077
-0.42498645 25.354994 7.0870643
-73.210861 32.210548 18.764923
-0.35759139 25.350014 7.0768981
-69.946541 31.039507 18.028433
-72.642822 32.198242 18.68298
-0.29121935 25.30154 7.0381522
-72.105904 32.187962 18.605852
-0.22989376 25.275623 7.0236712
-71.594643 32.169258 18.530266
-0.16666852 25.288757 7.0185084
-70.957695 32.109875 18.427389
-0.10151854 25.275301 7.0065756
-70.374763 32.07103 18.336983
-0.040185202 25.244209 6.990829
-62.851353 28.928894 16.532604
0.026128629 25.246717 6.9826565
-69.222305 31.982109 18.155334
0.088502198 25.233494 6.9711518
0.14979622 25.196276 6.9539123
-65.771416 30.819849 17.417727
0.21721676 25.176552 6.9401484
-65.242195 30.79162 17.337219
0.27947471 25.159081 6.9276218
-64.853317 30.809423 17.28738
0.33924586 25.140308 6.9151063
-64.307213 30.744961 17.195772
0.40761563 25.094551 6.8948412
0.46833807 25.10026 6.8882012
0.52830958 25.069689 6.8727713
-62.837246 30.645458 16.967096
0.59560919 25.060848 6.8718667
0.65656 25.058546 6.8632336
0.71854764 25.028646 6.8476906
0.7831369 24.989283 6.8294811
0.84750849 24.949749 6.8112602
0.90521306 24.961853 6.8065963
-60.015015 30.444687 16.525795
0.96801394 24.966526 6.7994356
1.0309993 24.964415 6.7905869
1.0900294 24.92399 6.7728581
-58.527695 30.273638 16.256889
1.1553595 24.917912 6.7627273
1.2159294 24.905741 6.7517319
-57.684727 30.229189 16.12911
1.2743132 24.875307 6.7365437
1.3393242 24.876333 6.7282028
-64.134918 33.89698 17.911469
1.4000597 24.828648 6.7084718
1.4562075 24.829082 6.68859
-59.710175 32.005344 16.839809
1.5210546 24.830589 6.6803927
1.5811769 24.8109 6.6676283
-55.327477 30.105339 15.771976
1.6387902 24.794783 6.6560712
-54.869595 30.03418 15.691221
1.7035273 24.798664 6.6484737
-58.783649 32.298843 16.782236
1.7657049 24.754889 6.6295409
-51.039009 28.365429 14.755966
1.8232595 24.775343 6.6269531
-50.980789 28.492716 14.778688
1.8853632 24.756886 6.614234
-53.408569 29.969627 15.504881
1.9471959 24.723087 6.5977945
-58.60405 32.969788 16.954733
2.0042284 24.700438 6.5847197
-58.551041 33.123695 16.984646
2.0686703 24.700539 6.576241
2.1281197 24.68903 6.5655785
2.1846256 24.653633 6.5494542
-51.858189 29.988064 15.293621
-58.216461 33.519585 17.034025
2.2489672 24.655167 6.5413427
-51.470032 29.955904 15.231829
2.307508 24.616659 6.5241899
-51.131634 29.936052 15.179944
2.3643162 24.607418 6.5144353
-50.831474 29.929358 15.136571
2.4287925 24.617037 6.5082893
-50.524136 29.937424 15.095779
2.4875095 24.595182 6.4951954
2.5446932 24.59977 6.488781
-49.894577 29.906744 15.000789
2.607964 24.57666 6.474781
-49.581814 29.906981 14.957355
2.6652436 24.525919 6.4548035
2.7236791 24.562363 6.4560299
-55.276024 33.571075 16.603798
2.7858846 24.521719 6.4378791
-48.656044 29.876659 14.791403
2.8469808 24.511318 6.4272828
-48.329151 29.85552 14.740981
2.9026635 24.48852 6.4143639
-48.079769 29.86566 14.70888
2.9644263 24.493011 6.40733
-47.768372 29.850698 14.662107
3.0246737 24.469839 6.3937201
3.0813558 24.46846 6.3859186
3.1428595 24.429758 6.3683424
-46.890892 29.824198 14.534118
3.2021544 24.433729 6.3615098
-46.708805 29.875683 14.521373
3.2596095 24.445225 6.3567624
-46.380375 29.829887 14.464781
3.322705 24.434528 6.345839
-46.169975 29.87488 14.446547
3.3808348 24.421003 6.3348775
3.4373732 24.418821 6.3269033
3.4983113 24.381126 6.3096547
-45.305996 29.82542 14.31491
3.556433 24.370029 6.2992916
-45.027313 29.809771 14.27253
3.6144435 24.387352 6.2959042
-44.920025 29.895393 14.278436
3.6758933 24.359642 6.2810364
-44.595848 29.861233 14.225273
3.7380216 24.368858 6.2751245
-44.3717 29.88327 14.199588
3.7900615 24.343246 6.2620101
-44.07888 29.840763 14.148746
3.8535147 24.340677 6.2530394
-43.90073 29.896749 14.137667
3.9100199 24.30773 6.2252331
-43.632072 29.886465 14.09799
3.965344 24.294861 6.2148156
-43.359566 29.859627 14.053768
4.0268898 24.273846 6.2015896
-43.185871 29.915691 14.043333
4.088037 24.296543 6.1991005
-42.974903 29.933643 14.018497
4.144032 24.290855 6.1903524
-42.687607 29.893341 13.968968
4.2030253 24.246672 6.171803
-42.42944 29.889957 13.932431
4.2642894 24.268938 6.1691961
-47.557709 33.511856 15.520681
4.3191476 24.253387 6.1581893
-42.013954 29.916376 13.881367
-46.377266 32.879295 15.203899
4.3778415 24.209726 6.1398096
-46.315964 33.023651 15.230453
4.4376664 24.218323 6.1340537
-39.163498 28.286077 13.091477
4.4914174 24.194817 6.1212506
-38.983166 28.303312 13.070721
-41.330963 29.923307 13.788587
4.5535297 24.182882 6.1101789
-41.147045 29.964121 13.773061
4.6126781 24.185385 6.103025
-40.906403 29.952133 13.736876
4.6705422 24.177347 6.0934649
-32.551052 24.248667 11.197131
-40.67075 29.942429 13.701939
4.7306294 24.159731 6.0886326
-32.373508 24.253963 11.173871
4.7878971 24.129473 6.0737147
-32.261055 24.304527 11.170601
4.8445287 24.130695 6.0665836
-32.091042 24.303703 11.1469
4.9083972 24.132978 6.0587645
-31.914646 24.312485 11.124652
4.9663391 24.126139 6.0494909
-31.731081 24.305248 11.097525
5.0174284 24.087318 6.0332928
-31.581654 24.316835 11.079688
5.0829887 24.101418 6.0281453
-31.40818 24.32519 11.057746
5.1390467 24.081903 6.0160208
-31.279078 24.35631 11.039087
5.1968942 24.090801 6.0106144
-31.138464 24.372379 11.023584
5.2547884 24.052586 5.9936752
-30.986031 24.394005 11.0078
5.3165364 24.071312 5.9901633
-30.826496 24.399729 10.987178
5.366981 24.031754 5.9738746
-30.705994 24.428907 10.977637
5.4331203 24.047749 5.969121
-30.534273 24.434034 10.955193
5.4847398 24.00201 5.9511681
-30.405449 24.460783 10.943917
5.5424709 24.016472 5.9398003
-30.265594 24.473696 10.927763
5.6015477 23.988714 5.9252772
-30.104185 24.484404 10.908101
5.6569252 23.953588 5.90944
-29.977699 24.51615 10.898368
5.7168531 23.973494 5.9064531
-29.863703 24.547127 10.890172
5.7798729 23.983225 5.9005766
-29.692461 24.543245 10.865618
5.8351846 23.948633 5.8848805
-29.564739 24.572372 10.855083
5.8899269 23.938047 5.8751259
-29.454689 24.604933 10.847821
5.9520454 23.929159 5.8648205
-29.304247 24.619139 10.838629
6.0053997 23.898258 5.850286
-29.161434 24.629808 10.821514
6.065753 23.918257 5.8472714
-29.01976 24.635813 10.803425
6.1290417 23.915485 5.8383107
-28.894444 24.669022 10.794208
6.1834393 23.890759 5.82515
-28.779301 24.700037 10.785864
6.2365336 23.871891 5.8135924
-28.650507 24.714674 10.771655
6.2989964 23.864929 5.803719
-28.510695 24.734612 10.757217
6.3501201 23.818485 5.7930017
-28.372316 24.745226 10.740712
6.4037089 23.802994 5.7822046
-28.259956 24.771614 10.731633
6.4707775 23.818995 5.7773499
-28.13434 24.801449 10.721567
6.529285 23.804335 5.7661152
-28.007645 24.82494 10.70981
6.5806885 23.789772 5.7558341
-27.880531 24.832766 10.694187
6.6348481 23.743608 5.737464
-27.734146 24.843634 10.676649
6.6925168 23.725748 5.7255588
-27.622074 24.879578 10.65421
6.7485976 23.722565 5.7174525
-27.506527 24.900442 10.643389
6.812717 23.734297 5.7119441
-27.373816 24.916136 10.628952
6.8669782 23.70108 5.696732
-27.252005 24.94054 10.618133
6.9190645 23.679777 5.6847181
-27.132404 24.956478 10.605561
6.9755516 23.64682 5.6692801
-27.011827 24.98587 10.596128
7.0352736 23.649067 5.6620307
-26.887758 25.001877 10.582961
7.0977073 23.678413 5.6537404
-26.771286 25.019043 10.571124
7.1494303 23.625479 5.6340547
-26.64098 25.038424 10.557924
7.2085142 23.624504 5.6261001
-26.539907 25.073074 10.552458
7.2579994 23.593155 5.6119809
-26.41943 25.085289 10.53887
7.3184185 23.577978 5.6003852
-26.286579 25.100817 10.524389
7.3756304 23.569155 5.5907602
-26.185638 25.134357 10.518676
7.4376884 23.589451 5.5876164
-26.071074 25.150377 10.506831
7.4945769 23.559902 5.5729747
-25.93783 25.163914 10.491817
7.5504942 23.536261 5.5599022
-25.810732 25.177452 10.477651
7.601336 23.511614 5.5472484
-25.721584 25.215126 10.474568
7.6522841 23.469191 5.5302391
-25.599531 25.232304 10.461983
7.7146335 23.471104 5.5225725
-25.49077 25.261194 10.454074
7.7713041 23.469238 5.5147238
-25.385031 25.282555 10.44475
7.8332596 23.460159 5.504426
-25.260702 25.301107 10.432192
7.8795295 23.410353 5.4862275
-25.153257 25.324968 10.423245
7.9363723 23.409019 5.4784894
-25.033272 25.331671 10.408403
7.9969268 23.394892 5.4671435
-24.920908 25.359938 10.399857
8.0514278 23.376135 5.4554577
-24.812975 25.382025 10.390416
8.1056833 23.365166 5.4457064
-24.704237 25.397949 10.379367
8.1679258 23.357059 5.4356136
-24.595446 25.428329 10.37183
8.2220192 23.336987 5.4236622
-24.482946 25.444744 10.360388
8.2830486 23.349566 5.4187808
-24.359859 25.447372 10.325498
8.3327627 23.29775 5.3996506
-24.256001 25.481176 10.319502
8.3990049 23.319593 5.3963537
-24.149836 25.502365 10.310125
8.4477186 23.28945 5.3826475
-24.053011 25.527325 10.302945
8.5117426 23.286875 5.3736792
-23.94722 25.558105 10.295954
8.572175 23.280113 5.3641577
-23.809216 25.551485 10.275468
8.6248236 23.263367 5.3532128
-23.722582 25.585403 10.271863
8.6717758 23.204401 5.3327022
-23.601645 25.599718 10.258802
8.7382975 23.225304 5.329145
-23.515144 25.638166 10.256321
8.7996006 23.236561 5.3239126
-23.410639 25.653116 10.245666
8.8556128 23.207422 5.3095078
-23.303156 25.679714 10.237436
8.906208 23.17663 5.2954049
-23.208752 25.709206 10.2317
8.9585476 23.15913 5.2843213
-23.106411 25.725182 10.221595
9.0283375 23.173426 5.2787304
-22.984648 25.735815 10.207536
9.0881872 23.171448 5.2704606
-22.87468 25.748034 10.195477
9.1366081 23.141695 5.2568979
-22.779116 25.769768 10.187701
9.1948595 23.119942 5.2440104
-22.694738 25.818096 10.187924
9.2461967 23.092051 5.230525
-22.589497 25.834091 10.177434
9.3056564 23.088606 5.2219515
-22.469461 25.833965 10.161002
9.3630495 23.07163 5.2103453
-22.359905 25.849506 10.149815
9.434617 23.096298 5.2070613
-22.262014 25.877073 10.143148
9.4849195 23.08239 5.1800671
-22.178291 25.909355 10.139565
9.5353708 23.045012 5.1644006
-22.085548 25.94187 10.134808
9.5964127 23.038343 5.1548314
-21.980045 25.960218 10.124863
9.6530581 23.032885 5.1461291
-21.864519 25.956951 10.108292
9.7134285 23.017075 5.1344233
-21.77121 25.992884 10.104293
9.7742043 23.016064 5.1262679
-21.674206 26.014194 10.096234
9.8250217 22.99391 5.1142631
-21.588673 26.04274 10.091502
9.885951 22.979462 5.102819
-21.459509 26.037813 10.072672
9.941474 22.963568 5.0917268
-21.384647 26.082771 10.073394
9.9931107 22.94375 5.0801864
-21.301672 26.11331 10.069501
10.068941 22.969395 5.0765634
-21.184074 26.119936 10.055065
10.130481 22.969269 5.0685287
-21.096058 26.149307 10.050202
10.178382 22.939137 5.0549664
-20.997007 26.160608 10.039438
10.231969 22.901991 5.0438433
-20.918049 26.210184 10.040732
10.302848 22.919542 5.0389061
-20.827427 26.240965 10.035863
10.349837 22.887257 5.0249376
-20.71314 26.233545 10.018467
10.423276 22.910728 5.0211115
-20.621996 26.262993 10.013204
10.465109 22.852495 5.0014954
-20.541241 26.304356 10.012259
10.535707 22.880724 4.999198
-20.442513 26.313871 10.001113
10.581567 22.82687 4.9801273
-20.340883 26.335281 9.9924679
10.649168 22.840574 4.9746842
-20.271301 26.384762 9.984477
10.703609 22.827209 4.9643598
-20.168505 26.38834 9.9713535
10.767075 22.817593 4.9537768
-20.08083 26.425489 9.9684553
10.829813 22.818302 4.9458036
-19.99357 26.452337 9.96311
10.900983 22.845457 4.9431758
-19.899376 26.465179 9.953414
10.959435 22.822861 4.9300861
-19.80452 26.492779 9.9472208
11.025272 22.830172 4.9233198
-19.731581 26.536348 9.947896
11.065423 22.784195 4.9019966
-19.616758 26.522762 9.9289675
11.117348 22.746101 4.8859873
-19.524952 26.553135 9.9238672
11.169671 22.721062 4.8731027
-19.445478 26.587917 9.9215202
11.246173 22.758696 4.8723259
-19.363913 26.614536 9.9169025
11.31802 22.767056 4.8650331
-19.242832 26.607235 9.8986568
11.376334 22.749544 4.8532047
-19.17531 26.661772 9.9027462
11.426055 22.723879 4.8405089
-19.085632 26.677279 9.8943253
11.483502 22.70433 4.8282986
-18.999981 26.708441 9.8902626
11.540901 22.684635 4.8160605
-18.899874 26.720758 9.8796501
11.598616 22.677092 4.8067374
-18.816086 26.742903 9.8736496
11.663999 22.66942 4.7963896
-18.730665 26.779011 9.8708267
11.722319 22.657181 4.7858477
-18.651094 26.811642 9.8679543
11.770925 22.629004 4.7726898
-18.558765 26.821842 9.8578882
11.837079 22.622601 4.7625527
-18.462503 26.842937 9.8499422
11.909189 22.642563 4.7531023
-18.385756 26.878601 9.848196
11.948823 22.594736 4.7363372
-18.28511 26.876692 9.8340569
12.023517 22.606173 4.7294264
-18.199656 26.911259 9.830862
12.08831 22.606993 4.7212205
-18.127348 26.952284 9.831028
12.139539 22.584127 4.7090197
-18.041447 26.969231 9.8234863
12.193851 22.551413 4.694026
-17.955345 27.002319 9.819849
12.264548 22.558653 4.6866174
-17.860256 27.017275 9.8105764
12.322649 22.555456 4.6783056
-17.772699 27.025448 9.8006773
12.391456 22.552691 4.6687126
-17.682217 27.051655 9.7947731
12.450177 22.534191 4.6566048
-17.597712 27.080282 9.7902718
12.519361 22.547777 4.6509366
-17.517467 27.103371 9.7850008
12.57511 22.522892 4.6376643
-17.416061 27.10774 9.7722998
12.63208 22.500462 4.6248307
-17.35276 27.16559 9.7777987
12.679568 22.469465 4.6111465
-17.2698 27.18416 9.7710629
12.756639 22.482029 4.6042109
-17.178787 27.208057 9.764533
12.827399 22.49201 4.5974665
-17.101768 27.240355 9.7619495
12.86914 22.449408 4.5817094
-17.003866 27.236555 9.7477407
12.931993 22.432983 4.5695767
-16.915606 27.263523 9.7423363
12.999794 22.43642 4.5616288
-16.846544 27.306782 9.7435064
13.054496 22.419226 4.5503669
-16.763157 27.32317 9.7361889
13.127982 22.422855 4.5417304
-16.674856 27.349417 9.730607
13.182133 22.399202 4.5289726
-16.607399 27.394484 9.739192
13.233652 22.375587 4.5165653
-16.515656 27.397688 9.7275229
13.305433 22.375235 4.5071855
-16.434122 27.43338 9.7251616
-16.34487 27.451384 9.7174416
-16.25746 27.460089 9.7077055
-16.166233 27.474417 9.698823
-16.10277 27.531054 9.7040272
-15.999598 27.514565 9.6860123
-15.934282 27.574148 9.6916866
-15.849897 27.592096 9.6846218
-15.782413 27.630308 9.6847916
-15.696088 27.656818 9.679554
-15.614221 27.678078 9.6736422
-15.53919 27.704378 9.6531715
-17.005117 27.328512 9.6279602
-16.918383 27.352144 9.622077
-16.839186 27.374987 9.6170082
-16.744516 27.386444 9.6071472
-16.665754 27.421024 9.6049547
-16.584997 27.440851 9.5989561
-16.500841 27.472874 9.5954332
-16.419989 27.497955 9.5906839
-16.341326 27.520256 9.5855598
-16.256069 27.550011 9.5813475
-16.166956 27.562407 9.555666
-16.101686 27.604551 9.5570908
-16.009209 27.622541 9.5491104
-122.65411 -8.1157007 15.464374
-15.933436 27.654196 9.5466261
-123.61423 -7.8855915 15.648956
-15.838502 27.649817 9.5329609
-124.18925 -7.6386547 15.785461
-15.751711 27.675735 9.5276394
-124.89736 -7.3614926 15.947159
-15.669366 27.696384 9.5216446
-125.74728 -7.1129775 16.121223
-15.604824 27.739012 9.523284
-126.89697 -6.8951702 16.354307
-15.518472 27.765041 9.5180473
-15.435849 27.790731 9.5132256
-15.358692 27.812828 9.5082693
-15.282963 27.8493 9.5069485
-15.194874 27.865499 9.4991264
-15.126026 27.900644 9.4984026
-15.031792 27.912392 9.488699
-14.95672 27.943157 9.4860992
-14.875167 27.956734 9.4785185
-14.795983 27.992792 9.4766417
-14.709782 28.004314 9.4679527
-14.63451 28.027779 9.4635773
-14.549514 28.053436 9.458437
-14.458672 28.05611 9.4470119
-14.348526 28.018606 9.4233932
-14.247291 28.014879 9.4090538
-14.126063 27.969177 9.382
-14.010215 27.919115 9.3546143
-13.902183 27.894724 9.3344212
-13.795313 27.871616 9.3146896
-13.704077 27.862906 9.2907286
-13.588944 27.829935 9.2675629
-13.485029 27.803444 9.2474375
-13.371401 27.751999 9.2200489
-13.250392 27.70546 9.1928558
-13.156713 27.695295 9.1779976
-13.047595 27.64937 9.1525297
-12.923542 27.594172 9.1228609
-12.819461 27.562246 9.1014137
-12.737271 27.564352 9.0910187
-12.605862 27.492132 9.0563002
-12.497695 27.456417 9.0334044
-12.420458 27.459599 9.0239239
-12.313933 27.432173 9.003231
-12.20778 27.397968 8.9809656
-12.116255 27.378281 8.9641151
-11.999116 27.320715 8.9347992
-11.905232 27.308184 8.9193506
-11.798754 27.25643 8.8928404
-11.713505 27.266554 8.8839626
-11.598641 27.202806 8.8534698
-11.516715 27.198242 8.8415155
-11.421939 27.187223 8.8263121
-11.328139 27.163969 8.8083086
-11.240881 27.146772 8.7926235
-11.152302 27.146776 8.7808819
-11.053386 27.110767 8.7591467
-10.956184 27.070618 8.7366476
-10.861247 27.054916 8.7142162
-10.777146 27.055088 8.7031183
-10.674308 27.000368 8.676403
-10.575179 26.966616 8.6551962
-10.476707 26.933393 8.6342039
-10.38026 26.889706 8.6109753
-10.295164 26.89142 8.6001148
-10.214265 26.887907 8.5885611
-10.110844 26.826151 8.5600863
-10.006772 26.783108 8.5360031
-9.9245224 26.774481 8.5230455
-9.8502808 26.776552 8.51371
-9.7487965 26.736914 8.4907856
-9.6654921 26.724499 8.482707
-9.5605326 26.653093 8.4516983
-9.4805002 26.661076 8.4430065
-9.3932657 26.644257 8.4274197
-9.301671 26.594273 8.4033136
-9.1996164 26.547546 8.378602
-9.1151924 26.535112 8.364439
-9.0243378 26.49147 8.3419504
-8.9388552 26.475023 8.3266869
-8.8489609 26.446955 8.3080559
-8.7693529 26.428741 8.293148
-8.6661644 26.373159 8.2661667
-8.5712614 26.322151 8.2413788
-8.4926424 26.304047 8.2266293
-8.4068422 26.288958 8.2030401
-8.3076668 26.2239 8.1743517
-8.2252464 26.193611 8.1561985
-8.1490688 26.202215 8.1481771
-8.058115 26.155689 8.1250105
-7.9772744 26.127319 8.1075258
-7.9066753 26.14938 8.1034622
-7.8106041 26.094193 8.0775471
-7.7342 26.075735 8.0630226
-7.6400123 26.023518 8.0380678
-7.5611448 26.012693 8.0250435
-7.4877982 26.000658 8.0124598
-7.3997254 25.970766 7.9936557
-7.3097706 25.918289 7.9692006
-7.2499437 25.942982 7.9671931
-7.1526122 25.883812 7.9401608
-7.0750642 25.864447 7.9252682
-7.0114183 25.877007 7.9198537
-6.9149094 25.816998 7.8927302
-6.8456254 25.820215 7.884335
-6.7729726 25.804478 7.8709593
-6.6973128 25.804573 7.8609738
-6.6112809 25.755211 7.8377843
-6.5351129 25.735207 7.8229237
-6.4519949 25.70145 7.8038535
-6.3779511 25.695314 7.7925916
-6.3010859 25.66213 7.7744861
-122.68679 24.116238 23.085989
-128.66089 25.261765 24.164042
-6.2273164 25.664497 7.7652955
-116.69292 23.283001 22.079798
-6.1513772 25.636848 7.7213659
-113.74958 22.996458 21.614964
-6.0817056 25.624649 7.7092667
-110.71232 22.665773 21.126947
-5.9898562 25.565895 7.6831484
-5.9250979 25.57756 7.6773844
-5.8469219 25.534927 7.6569118
-5.7749057 25.539644 7.6485343
-5.7031336 25.526327 7.6358919
-5.6381702 25.526558 7.6273761
-165.88802 36.165474 31.936361
-5.561368 25.51347 7.6141248
-168.67903 37.223133 32.567429
-5.4790754 25.461437 7.5908694
-5.4103208 25.446577 7.578258
-5.3274055 25.409189 7.5584102
-5.2524948 25.389929 7.5439377
-5.180685 25.361729 7.5277443
-5.1086559 25.356443 7.5383272
-179.28979 42.286484 35.21574
-5.0427289 25.368484 7.5324931
-4.9698653 25.334255 7.5146809
-4.8946157 25.320158 7.5013666
-184.58675 44.964687 36.57383
-4.8156328 25.270672 7.4790983
-4.7565823 25.287016 7.4752026
-187.3578 46.56813 37.332687
-4.686379 25.290604 7.4667835
-4.6130595 25.260628 7.4499292
-189.92162 48.254032 37.843433
-4.5437617 25.235289 7.4347138
-89.375206 23.294001 18.374809
-4.466814 25.209881 7.4184728
-89.36824 23.542767 18.43326
-192.99411 50.034977 38.681423
-4.395402 25.184795 7.4030395
-194.25935 50.858517 39.048031
-4.3248324 25.151533 7.3857627
-195.3331 51.619122 39.373886
-4.2580938 25.165895 7.3803787
-151.34454 40.57605 30.827061
-197.3277 52.689117 39.897339
-4.1916103 25.170275 7.3726416
-123.91609 33.685505 25.496666
-198.62271 53.564247 40.280273
-4.1256208 25.143194 7.3574491
-158.57327 43.285889 32.445286
-199.85321 54.367603 40.637405
-4.0498075 25.117474 7.3412833
-200.88953 55.208202 40.977341
-3.9749446 25.083557 7.3232841
-89.949165 25.363173 18.945932
-3.9037154 25.04178 7.3038855
-3.8350501 25.033257 7.2927766
-3.7522583 24.959969 7.264317
-89.803421 26.041288 19.088272
-3.6867788 24.940659 7.2510505
-3.6097949 24.902567 7.2317734
-3.5406392 24.876059 7.2163005
-89.429756 26.654434 19.18449
-3.4668896 24.81459 7.1918621
-3.3941052 24.792492 7.1769648
-89.160255 27.058947 19.244888
-3.326108 24.768177 7.162169
-3.2668464 24.773712 7.1556649
-3.1846943 24.698984 7.1192851
-3.121423 24.695433 7.1100836
-3.0589817 24.682856 7.0988374
-2.9830487 24.638231 7.0781574
-2.9224079 24.659756 7.0752921
-2.853847 24.612299 7.0549092
-94.272018 30.602339 20.777884
-2.7899971 24.61585 7.0473285
-100.09481 32.723469 22.066704
-2.7147148 24.555975 7.0230932
-2.6525085 24.539595 7.0109701
-2.585727 24.538448 7.0018811
-2.5198796 24.513832 6.9873114
-2.4600666 24.509089 6.9782834
-2.3945825 24.513958 6.9708023
-94.159378 32.397293 21.160805
-2.3287711 24.486971 6.9556713
-2.2629168 24.440882 6.9309554
-2.1946905 24.426552 6.9185338
-91.238068 32.1758 20.716385
-2.1265936 24.381279 6.8987465
-2.0699751 24.39242 6.8939338
-84.183327 30.206417 19.300577
-2.0008028 24.369144 6.8792534
-1.9379156 24.354212 6.8673925
-87.935875 32.019489 20.236502
-1.8749959 24.338182 6.8552661
-1.8115927 24.33457 6.8460383
-1.7426307 24.291445 6.8266501
-1.6837419 24.283907 6.8170819
-64.386612 24.396576 15.281336
-1.6156673 24.261429 6.8027372
-64.37307 24.586699 15.324953
-1.5529473 24.24177 6.7897711
-64.331886 24.752401 15.359023
-1.4923277 24.218767 6.7762847
-64.31974 24.921835 15.397884
-1.4268764 24.212656 6.7661915
-64.326118 25.120314 15.446177
-1.3638359 24.192747 6.76053
-64.360405 25.315266 15.497376
-1.3097948 24.219067 6.7596855
-1.2394222 24.171129 6.7389455
-1.1796337 24.169317 6.7306223
-64.310104 25.851416 15.618771
-1.1182489 24.133175 6.7138867
-64.247025 26.002838 15.646495
-1.0509206 24.105381 6.6983614
-0.99275154 24.115341 6.6930647
-64.219833 26.374338 15.731647
-0.93472946 24.105085 6.6829576
-64.174187 26.536774 15.742743
-0.86584681 24.058893 6.6628323
-64.244728 26.76445 15.806593
-0.80467713 24.061188 6.6553082
-0.74875629 24.068384 6.6496482
-64.180824 27.10911 15.880382
-0.68441278 24.038342 6.6339808
-64.159477 27.293549 15.921593
-0.62143207 24.020382 6.6213794
-0.56446886 24.007095 6.6033726
-0.49973264 23.99287 6.5914388
-0.44091523 23.99115 6.5832696
-71.733521 31.253248 17.882477
-0.38256174 23.967314 6.5698848
-0.3206524 23.982819 6.5654178
-70.495056 31.15085 17.692099
-0.25853896 23.93911 6.5467958
-0.20001972 23.908216 6.5317059
-0.13640398 23.899637 6.5212679
-68.803596 31.047512 17.40954
-0.078039527 23.897987 6.513175
-68.372787 31.061434 17.355316
-0.0187477 23.850584 6.4940443
0.041245699 23.889761 6.4954786
-62.902576 29.037468 16.141216
0.10176192 23.888847 6.4872785
0.1586711 23.871279 6.4755802
-66.383575 30.984709 17.07127
0.22085305 23.841681 6.4603167
0.28384274 23.817762 6.4583549
-65.447067 30.970011 16.942667
0.33922318 23.820597 6.451726
0.40090388 23.792435 6.4368544
0.4596833 23.81715 6.4350085
-64.010826 30.900146 16.73414
0.5159238 23.801584 6.4238672
-63.55447 30.872311 16.666538
0.57937264 23.777876 6.4098282
-62.999485 30.818766 16.579622
0.63817048 23.751776 6.3958302
-62.540302 30.792519 16.512024
0.69457215 23.724421 6.3818488
0.75647748 23.728676 6.3746996
-61.504623 30.685455 16.340986
0.81359041 23.738167 6.3694348
0.86974913 23.70945 6.3551602
-60.538082 30.585312 16.188068
0.9324432 23.686705 6.3414521
0.9898454 23.683453 6.3331022
1.0447773 23.685625 6.326376
1.1046112 23.687965 6.3023038
1.1656204 23.620823 6.2782526
1.220786 23.601706 6.2664213
-57.178795 30.038034 15.60903
1.2798569 23.61495 6.2617898
1.3388587 23.636597 6.2591696
-56.229671 29.926252 15.455669
-64.241226 34.031296 17.505373
1.3936347 23.637972 6.252275
-64.24015 34.22514 17.551533
1.455484 23.614799 6.2385955
-59.834965 32.159592 16.470272
-64.200867 34.424061 17.593809
1.5126585 23.589403 6.2250023
-59.413063 32.129456 16.406773
1.567439 23.56094 6.2109938
-55.391659 30.200901 15.409451
1.6288556 23.550615 6.2004342
-54.839149 30.100523 15.311745
1.6856849 23.591293 6.2026381
-54.456005 30.073 15.254045
1.740243 23.566235 6.1894708
1.8016129 23.564014 6.18085
-51.037159 28.59314 14.44432
1.8582499 23.54064 6.16781
-53.422966 30.048773 15.110417
1.9144596 23.563852 6.1778102
-53.103336 30.04154 15.066042
1.9754326 23.533642 6.1625528
-52.816608 30.071478 15.034938
2.0344408 23.533644 6.1547728
2.0884109 23.505888 6.1410251
-52.360241 30.164547 14.996284
2.1474516 23.511316 6.1345377
2.2060537 23.496641 6.1233048
-51.690746 30.148087 14.903028
2.2601211 23.48465 6.1133113
-51.325092 30.106298 14.84426
2.3208363 23.469706 6.1017361
-50.898529 30.050385 14.761664
2.3753319 23.401386 6.0782294
-50.661488 30.08474 14.738287
2.4303749 23.428917 6.0775499
-50.32375 30.053608 14.685854
2.4903131 23.399282 6.0625682
-50.000362 30.049238 14.641725
2.5473795 23.417036 6.0592856
-49.740261 30.066496 14.611193
2.600975 23.402369 6.0487156
-38.968594 23.947826 11.714668
-49.391506 30.024178 14.554621
2.6606641 23.410076 6.0308909
-38.64286 23.900364 11.659936
2.7152984 23.370407 6.0142312
-38.272602 23.814291 11.59005
2.7699687 23.382912 6.0100045
-38.094296 23.834778 11.571189
2.8307934 23.381863 6.0017357
-37.837048 23.823118 11.534133
2.8855555 23.351299 5.9872303
-37.663223 23.84971 11.517328
2.9421515 23.35671 5.9810591
-37.47081 23.864334 11.495189
3.0004239 23.35148 5.9721303
-37.263161 23.874044 11.469847
3.0563838 23.308109 5.9544139
-37.058987 23.884859 11.445231
3.1091857 23.289434 5.9430008
-36.884167 23.902346 11.426121
3.1711533 23.309366 5.9395833
-36.66584 23.907753 11.39833
3.2257237 23.284657 5.9264989
-36.482487 23.923435 11.377652
3.2799227 23.288395 5.9202452
-36.332355 23.953848 11.364919
3.3394907 23.272751 5.9086628
-36.105022 23.950689 11.333883
3.3950689 23.26474 5.8994269
-35.909355 23.956057 11.309103
3.4452217 23.220194 5.8798537
-35.754822 23.981457 11.294587
3.5073793 23.2402 5.8764272
-35.565884 23.999651 11.273768
3.5612595 23.212811 5.8627977
-35.394779 24.018141 11.255395
3.6159093 23.222427 5.8578849
-35.228645 24.033968 11.237049
3.6752441 23.207827 5.8465838
-35.030666 24.043736 11.213015
3.7309794 23.203772 5.8382702
-34.864822 24.063276 11.195594
3.7817557 23.170305 5.8236022
-34.689636 24.070885 11.17408
3.8411229 23.158134 5.8128757
-34.525078 24.101177 11.150543
3.9009736 23.174406 5.8088636
-34.342983 24.112778 11.129093
3.9528613 23.154793 5.7973499
-34.204662 24.142538 11.117802
4.0073638 23.117693 5.7813249
-34.005547 24.141178 11.090992
4.0680413 23.141129 5.7789106
-33.847618 24.166546 11.076045
4.1198187 23.122089 5.767549
-33.68998 24.181314 11.058605
4.1786952 23.10717 5.7562323
-33.504761 24.191757 11.036465
4.2329545 23.091501 5.7453465
-33.351254 24.212917 11.021101
4.2855778 23.08157 5.7360435
-33.203445 24.232296 11.006071
4.3452573 23.074753 5.7265525
-33.025002 24.244955 10.985362
4.4029689 23.088997 5.7223392
-32.87112 24.263771 10.96939
4.4499836 23.033245 5.7028565
-32.727589 24.284136 10.955164
4.5082097 23.015598 5.6909766
-32.556641 24.299677 10.936142
4.5620522 22.999165 5.6799636
-32.410908 24.322193 10.922138
4.6183949 23.019707 5.6774316
-32.270882 24.346571 10.883804
4.6766052 23.002586 5.6656795
-32.100384 24.360165 10.864456
4.7331657 22.990265 5.6552882
-31.937147 24.373146 10.845923
4.7822723 22.972818 5.6446576
-31.793743 24.38471 10.829681
4.8417134 22.965681 5.6351223
-31.638342 24.40691 10.814386
4.8954282 22.934067 5.6205087
-31.48094 24.421949 10.797118
4.9507451 22.945312 5.6158972
-31.313314 24.418823 10.774164
5.0049562 22.922972 5.5987802
-31.173805 24.445545 10.762053
5.0594912 22.898523 5.5857701
-31.046572 24.480766 10.753596
5.1116762 22.88862 5.5765324
-30.868052 24.467382 10.726752
5.168221 22.863657 5.5631351
-30.73477 24.501831 10.717311
5.217298 22.820227 5.5463247
-30.607992 24.530701 10.707399
5.2713675 22.823162 5.539896
-30.467112 24.543451 10.691776
5.3300443 22.812887 5.5297146
-30.32349 24.568378 10.678694
5.3737402 22.738951 5.5063505
-30.181395 24.583391 10.667551
5.4372888 22.798985 5.5122666
-30.055933 24.606131 10.656344
5.492187 22.766628 5.4973259
-29.900635 24.620193 10.639113
5.5409451 22.725323 5.4810643
-29.772892 24.645 10.628098
5.5916176 22.708683 5.4704223
-29.646961 24.665758 10.616357
5.6482549 22.688185 5.4580755
-29.498775 24.683393 10.600923
5.7077088 22.696066 5.4521141
-29.340565 24.687496 10.58093
5.7580585 22.67812 5.4412036
-29.2365 24.723837 10.575806
5.8156414 22.675385 5.4329619
-29.099323 24.743357 10.56228
5.869348 22.651844 5.4202771
-28.947479 24.750536 10.543866
5.9120088 22.594099 5.4009051
-28.831024 24.775576 10.534404
5.9786315 22.627245 5.4000144
-28.677727 24.785198 10.51638
6.0266247 22.586773 5.3840513
-28.561163 24.814056 10.507816
6.0813637 22.592508 5.3782015
-28.441278 24.834824 10.496881
6.1394515 22.581106 5.3678288
-28.315458 24.865049 10.487416
6.1848021 22.529045 5.3494558
-28.183744 24.880016 10.473529
6.2412291 22.542831 5.3452997
-28.052448 24.889826 10.458468
6.2979875 22.52541 5.3336697
-27.934887 24.925308 10.451352
6.3546996 22.529184 5.3270922
-27.788982 24.926722 10.432352
6.402513 22.50139 5.3141723
-27.692091 24.96376 10.428348
6.4598999 22.487305 5.3032537
-27.553743 24.980242 10.413944
6.51089 22.464504 5.2911034
-27.433498 25.001602 10.403105
6.5622001 22.44346 5.2793288
-27.318369 25.02685 10.39387
6.6195407 22.43964 5.2708607
-27.178551 25.035374 10.377375
6.6745644 22.425409 5.2602191
-27.045336 25.048935 10.362956
6.7312093 22.437992 5.2557478
-26.959414 25.093061 10.362097
6.7780004 22.378311 5.2353706
-26.83312 25.116602 10.350977
6.8282881 22.353863 5.2229209
-26.691797 25.116959 10.328468
6.8838215 22.361403 5.2173958
-26.587465 25.143847 10.321064
6.9422746 22.352615 5.2075982
-26.459339 25.164125 10.308931
6.9984512 22.352928 5.2002668
-26.344824 25.186062 10.298997
7.04707 22.331219 5.1886897
-26.24136 25.212482 10.291596
7.1029263 22.311781 5.1766987
-26.101538 25.220697 10.275038
7.1576858 22.306122 5.1681328
-25.983757 25.238247 10.263625
7.2027769 22.272501 5.1518898
-25.883993 25.266716 10.257204
7.264081 22.274954 5.1443911
-25.771088 25.297726 10.249649
7.3216357 22.280037 5.1380129
-25.6591 25.31922 10.239944
7.3691707 22.254843 5.1257496
-25.535112 25.324244 10.224723
7.4239612 22.231827 5.1130486
-25.429333 25.36047 10.219356
7.4794788 22.22027 5.1029787
-25.303274 25.372465 10.205523
7.5272512 22.196592 5.0910454
-25.198963 25.394304 10.196919
7.5849271 22.193108 5.082612
-25.102028 25.432642 10.193228
7.6410995 22.183929 5.0730219
-24.974182 25.44145 10.178398
7.6886854 22.159903 5.0610304
-24.86731 25.459627 10.168582
7.7538309 22.174896 5.0560093
-24.738535 25.471422 10.154344
7.8073339 22.163965 5.0463543
-24.643606 25.505135 10.149815
7.8550353 22.140505 5.034482
-24.54306 25.528137 10.141988
7.910315 22.119986 5.0223107
-24.425426 25.549196 10.131434
7.9689326 22.132828 5.0084457
-24.303495 25.555565 10.116808
8.0121775 22.094284 4.9935822
-24.201128 25.575533 10.108016
8.0753765 22.100981 4.986835
-24.095877 25.6073 10.101658
8.1262407 22.080999 4.9753761
-23.989714 25.627752 10.09248
8.1812487 22.082592 4.9684968
-23.876789 25.636059 10.079509
8.239296 22.071363 4.9581699
-23.760323 25.655384 10.068697
8.2929726 22.0532 4.9467721
-23.656494 25.681883 10.061271
8.3373156 22.019522 4.9329195
-23.564688 25.709705 10.059431
8.3919716 22.004787 4.9222069
-23.456945 25.731514 10.050363
8.4543123 22.014656 4.916326
-23.347286 25.750935 10.040469
8.5082054 22.011784 4.9085326
-23.244808 25.767178 10.03077
8.560214 21.988394 4.8961124
-23.145163 25.796034 10.024456
8.6188707 21.985914 4.8877835
-23.03373 25.812342 10.013586
8.6639175 21.955233 4.8745494
-22.928179 25.824175 10.002428
8.7293711 21.96364 4.8725133
-22.810438 25.838017 9.9901342
8.7919474 21.979572 4.8680482
-22.722683 25.872704 9.9867878
8.8380556 21.952181 4.8554535
-22.637489 25.904762 9.9831533
8.8991575 21.94927 4.8467016
-22.527067 25.925077 9.9733753
8.9499693 21.929226 4.8352337
-22.430918 25.94997 9.9665804
8.9915323 21.888765 4.8201303
-22.329653 25.963951 9.9565029
9.0472746 21.869974 4.8083096
-22.215582 25.979034 9.944993
9.1025429 21.863213 4.7994118
-22.122875 26.00845 9.9181337
9.1462755 21.829723 4.7856803
-22.039713 26.040901 9.9148827
9.2170725 21.854074 4.7821321
-21.919464 26.047941 9.9006815
9.261651 21.809988 4.7657685
-21.819092 26.071125 9.8929501
9.3115463 21.794291 4.755455
-21.725845 26.091536 9.885499
9.3668537 21.780777 4.744946
-21.624929 26.11339 9.8773794
9.4380121 21.817598 4.7327757
-21.524691 26.135612 9.8694372
9.4875774 21.800596 4.7221951
-21.43786 26.16218 9.8643007
9.5459776 21.788671 4.7116532
-21.345741 26.198034 9.8606787
9.5865526 21.740971 4.6949749
-21.246323 26.214987 9.8515892
9.643631 21.744364 4.688242
-21.152685 26.232948 9.843504
9.7049465 21.740128 4.6791387
-21.043213 26.248014 9.8326378
9.7567148 21.722723 4.6681714
-20.960083 26.282526 9.8298826
9.8090982 21.713093 4.658968
-20.868723 26.300686 9.8398361
9.8680191 21.70211 4.6485801
-20.770504 26.327641 9.8332663
9.9169092 21.677139 4.6361971
-20.681831 26.354939 9.828043
9.978282 21.690445 4.631249
-20.580492 26.361849 9.8162785
10.030877 21.662876 4.6177602
-20.489088 26.395792 9.8122787
10.093664 21.667252 4.6105056
-20.384485 26.408539 9.8014746
10.148907 21.670078 4.6038804
-20.306017 26.436205 9.7976894
10.19709 21.631374 4.5883307
-20.215836 26.470749 9.7939959
10.259594 21.634382 4.5807891
-20.124643 26.498533 9.7885561
10.31334 21.627121 4.5719671
-20.038721 26.521811 9.7827377
10.368533 21.605875 4.5596342
-19.922773 26.524193 9.7679596
10.408941 21.560181 4.5434532
-19.839685 26.555569 9.7644491
10.473252 21.578356 4.5392714
-19.7491 26.57218 9.756424
10.536815 21.577147 4.5305886
-19.657185 26.602833 9.7515736
10.585511 21.551558 4.5180831
-19.573494 26.632729 9.7476311
10.651557 21.572781 4.5143962
-19.485363 26.651485 9.7404432
10.697144 21.528509 4.4978676
-19.393456 26.681322 9.7353992
10.749454 21.511412 4.4868999
-19.292194 26.688297 9.7236624
10.801203 21.498526 4.477006
-19.215862 26.721048 9.7213755
10.878232 21.527306 4.4736605
-19.127481 26.754501 9.7176619
10.920522 21.486813 4.4584637
-19.03278 26.768774 9.7085352
10.969351 21.469254 4.443192
-18.942526 26.782974 9.6999798
11.035348 21.471897 4.4350958
-18.860506 26.823826 9.6988745
11.086825 21.446993 4.4223857
-18.753515 26.82655 9.6853647
11.1444 21.446497 4.4146576
-18.671997 26.851162 9.6804504
11.202127 21.435396 4.4043941
-18.577181 26.869005 9.6721611
11.263434 21.432041 4.3954949
-18.489233 26.895573 9.6668634
11.296274 21.376709 4.3780322
-18.413984 26.927748 9.6645842
11.360752 21.374859 4.3690696
-18.314741 26.94525 9.6384878
11.412307 21.355284 4.3576121
-18.244684 26.989508 9.6397829
11.471146 21.356552 4.3501348
-18.151402 26.996801 9.6292048
11.528752 21.339344 4.3384385
-18.069201 27.035418 9.627552
11.573233 21.304533 4.3243027
-17.977251 27.049419 9.6187487
11.632927 21.307108 4.3170223
-17.906359 27.086369 9.6181917
11.700827 21.311232 4.3090234
-17.806894 27.100634 9.6084585
11.736354 21.25779 4.2916522
-17.717823 27.117661 9.6007557
11.798617 21.265133 4.285162
-17.650154 27.158573 9.6015692
11.876297 21.288704 4.2804823
-17.551901 27.173527 9.5921602
11.924997 21.257452 4.2666316
-17.462944 27.195513 9.5856543
11.967007 21.222706 4.2528377
-17.376125 27.208881 9.5773773
12.012066 21.184326 4.2377777
-17.301846 27.251173 9.5776463
12.076787 21.185589 4.2295203
-17.221548 27.284779 9.5750523
12.140574 21.194559 4.2232137
-17.144455 27.311377 9.5712109
12.17979 21.144588 4.2061777
-17.048019 27.321285 9.5608406
12.238025 21.132442 4.1955967
-16.957003 27.338659 9.5529642
12.298395 21.134054 4.1879969
-16.891106 27.380911 9.5543308
12.372329 21.147276 4.1813564
-16.791567 27.391039 9.5436029
12.418453 21.115828 4.167799
-16.714415 27.422232 9.5408487
12.472714 21.104952 4.1580443
-16.644669 27.458454 9.5402718
12.529558 21.085577 4.1435781
-16.545242 27.46777 9.5293655
12.589837 21.081146 4.1345539
-16.471682 27.503807 9.5282402
-16.376856 27.501726 9.5152264
-16.283331 27.518831 9.5069551
-16.204433 27.552025 9.5044479
-16.137762 27.586075 9.5037584
-16.054506 27.618252 9.5004339
-15.97547 27.650837 9.4977636
-15.88864 27.659109 9.4882727
-15.814633 27.699198 9.4880543
-15.72543 27.715212 9.480094
-15.639724 27.72436 9.4709597
-15.561872 27.763922 9.470108
-16.991917 27.318924 9.4076738
-16.897865 27.320099 9.3957663
-16.770281 27.289043 9.3719549
-16.639357 27.240652 9.3436432
-16.556412 27.256437 9.3366003
-16.426228 27.219301 9.3043585
-16.302979 27.185501 9.2804813
-16.200535 27.170527 9.2637081
-16.065851 27.117813 9.2339153
-15.96268 27.111887 9.2191677
-15.866039 27.103756 9.2047482
-15.721914 27.039581 9.1710443
-15.638429 27.056202 9.1641273
-15.527504 27.02408 9.1422338
-15.400733 26.983938 9.1164074
-15.289742 26.9559 9.0954599
-15.201839 26.957708 9.0844965
-15.0915 26.941074 9.0663042
-14.943673 26.851671 9.0422935
-14.856323 26.85252 9.0311518
-14.738312 26.821093 9.0084505
-14.644979 26.822971 8.9967718
-14.525017 26.769064 8.9685402
-14.408004 26.730814 8.9443655
-14.302534 26.710711 8.9259481
-14.211284 26.701662 8.911973
-14.104272 26.67766 8.8924389
-13.972423 26.611137 8.8596983
-13.87698 26.59301 8.8430452
-13.750461 26.539333 8.8140106
-13.636216 26.493555 8.7884235
-13.538647 26.469521 8.7701054
-13.418381 26.423664 8.7282181
-13.322941 26.407799 8.7121239
-13.232608 26.394245 8.6972332
-13.116029 26.352013 8.6722202
-13.007274 26.310555 8.6484022
-12.88708 26.241785 8.616703
-12.806026 26.260099 8.6104774
-12.705142 26.236326 8.5918207
-12.595504 26.183773 8.5652866
-12.488336 26.146906 8.5427465
-12.372884 26.093929 8.515358
-12.281333 26.071779 8.4982891
-12.162192 26.016102 8.4697876
-12.087263 26.029619 8.4632273
-11.990101 25.994932 8.4424925
-11.882029 25.957317 8.4196558
-11.80742 25.970091 8.4129601
-11.721845 25.955402 8.3984108
-11.625321 25.937742 8.3817425
-11.518073 25.886105 8.3557253
-11.433931 25.872253 8.3415556
-11.352612 25.882225 8.3333302
-11.246186 25.835958 8.3086748
-11.150229 25.796871 8.2870598
-11.063838 25.788715 8.2739286
-10.953238 25.731289 8.2461166
-10.878124 25.731874 8.236495
-10.775589 25.695337 8.2146196
-54.50082 2.8793335 8.502635
-10.689816 25.679293 8.1939201
-54.421738 3.0082104 8.5230856
-10.617948 25.685112 8.1859493
-10.507909 25.630642 8.1589184
-10.426045 25.621025 8.1460371
-10.307545 25.5273 8.1087236
-10.220348 25.517792 8.0951738
-10.124664 25.476591 8.0731077
-10.042116 25.456144 8.0576019
-9.9395952 25.411551 8.0338526
-9.8537912 25.389151 8.0174656
-9.7736654 25.378508 8.0045652
-9.6615677 25.303459 7.972446
-9.5871401 25.310598 7.9644437
-9.5096149 25.297201 7.9512348
-9.4138203 25.255381 7.9261999
-9.3435154 25.27047 7.9205914
-9.2459412 25.209709 7.8937078
-9.1635752 25.202948 7.881423
-9.0795107 25.178173 7.864706
-8.9954929 25.146002 7.8462648
-8.9084053 25.126328 7.8303452
-8.8422375 25.141624 7.8253193
-8.7488756 25.085238 7.8000011
-8.6528816 25.04213 7.7774444
-8.5776224 25.034111 7.7657843
-8.5113869 25.040565 7.7586789
-8.4067822 24.973909 7.7294965
-8.3369322 24.984026 7.7173066
-8.2582741 24.958355 7.701087
-8.1882515 24.967754 7.6941786
-8.1036263 24.940115 7.676722
-8.0275373 24.919025 7.6619039
-7.9463873 24.905924 7.6482925
-7.8651142 24.877438 7.6310716
-7.7864709 24.847748 7.6139107
-7.7071733 24.837437 7.6011891
-7.6298332 24.817053 7.5863695
-7.5544071 24.793737 7.5711136
-7.4659562 24.757082 7.5510478
-7.3809495 24.713863 7.5298972
-7.331584 24.758957 7.5340018
-7.2540751 24.749325 7.516325
-7.1643 24.698328 7.4927516
-7.0958066 24.682566 7.480165
-7.025435 24.691519 7.4730988
-6.9322896 24.62818 7.4462056
-6.8737369 24.64654 7.4428697
-6.7795901 24.578209 7.414681
-6.7105269 24.580978 7.4063387
-6.6407886 24.565767 7.3937144
-6.5585341 24.536814 7.376255
-6.4842877 24.51487 7.3614726
-6.4164863 24.503531 7.3500013
-6.3371801 24.481037 7.3344302
-6.2586889 24.444101 7.3155961
-6.1956019 24.446962 7.3184686
-6.119698 24.432785 7.3052616
-6.0463834 24.409592 7.2902856
-5.9761801 24.387201 7.2759023
-5.8993025 24.367865 7.2613616
-125.36936 24.813587 22.752783
-128.7766 25.471821 23.345705
-5.8215833 24.336699 7.2439466
-119.80353 24.050537 21.858259
-5.7553673 24.316538 7.2306018
-5.6723528 24.274853 7.2100382
-149.21524 30.555235 27.171547
-5.5944486 24.240292 7.1918039
-151.98029 31.506483 27.751614
-5.5269356 24.222092 7.1787462
-5.4454737 24.18239 7.1588464
-157.81847 33.501598 28.973198
-5.3751354 24.16181 7.1448631
-160.39993 34.442795 29.527334
-5.3011851 24.11945 7.12532
-5.2301989 24.112606 7.114459
-5.1618838 24.094187 7.0885515
-5.0960698 24.077557 7.0760965
-5.0231047 24.061935 7.062943
-4.956224 24.049269 7.0512714
-4.8880081 24.022074 7.0360384
-4.8107214 23.98852 7.0181403
-4.7378263 23.951561 7.00002
-4.6732526 23.944525 6.9899583
-4.5945315 23.893198 6.9677286
-4.5250249 23.875467 6.9545288
-183.92952 45.066193 35.158901
-4.4593353 23.852585 6.9406266
-185.09126 45.80019 35.482491
-4.3853908 23.816154 6.9224892
-4.3266368 23.838146 6.9199476
-4.258791 23.804649 6.9032884
-4.1780553 23.752157 6.89538
-89.437607 23.43322 17.865643
-4.1260457 23.79048 6.8975363
-89.463623 23.671967 17.925591
-4.0562139 23.74634 6.878098
-3.9868367 23.733215 6.8659644
-3.9224029 23.719624 6.8543673
-151.49721 40.791943 29.970352
-3.8571122 23.691469 6.8392553
-124.03993 33.836712 24.786648
-3.7866077 23.671329 6.8253336
-158.7108 43.555191 31.470211
-3.7219117 23.654446 6.8129306
-3.6568954 23.624836 6.797513
-3.5922697 23.628103 6.7898259
-89.704178 25.644913 18.376347
-3.5272884 23.618643 6.7791181
-89.645668 25.873781 18.42305
-3.4665692 23.60606 6.7682376
-89.561661 26.076605 18.46031
-3.3977406 23.577776 6.7526288
-3.3342671 23.568199 6.7274642
-89.402206 26.522297 18.545408
-3.2675741 23.525509 6.7088027
-3.1995411 23.509211 6.6961145
-89.263641 26.964506 18.632353
-3.1333067 23.477783 6.6801357
-89.038162 27.13463 18.643711
-3.0729589 23.462349 6.6686516
-3.0051475 23.444574 6.6556463
-88.864456 27.565546 18.723461
-2.942939 23.430243 6.6441746
-88.691116 27.749849 18.74486
-2.8900673 23.450548 6.6419926
-88.639778 27.970367 18.742756
-2.8183823 23.410883 6.6233783
-2.7577219 23.402578 6.6135116
-2.6934097 23.362013 6.5956502
-2.6261916 23.342236 6.5822511
-2.5670326 23.352528 6.5769105
-100.27428 32.925854 21.402327
-2.4995244 23.290958 6.5537357
-2.4431841 23.315849 6.5521631
-65.866936 22.260965 14.480991
-2.3714576 23.253881 6.5283427
-65.597412 22.35915 14.469755
-2.3175552 23.265459 6.5239868
-2.2548015 23.252584 6.5127754
-2.1946664 23.254486 6.5053477
-94.272354 32.555332 20.547358
-2.1375065 23.246044 6.4959002
-2.0704551 23.219088 6.4808435
-2.006418 23.180832 6.4635487
-1.9489905 23.168196 6.4530864
-1.8863822 23.165974 6.4443717
-84.275352 30.36422 18.750959
-1.8264406 23.150629 6.4329476
-1.773645 23.166592 6.4297519
-1.7085164 23.146101 6.4164491
-1.6526469 23.156557 6.4115663
-1.5929493 23.124298 6.3962321
-1.5248811 23.079847 6.3769612
-64.253624 24.440672 14.790095
-1.4611191 23.047979 6.3611841
-64.204269 24.609859 14.823775
-1.4046752 23.034954 6.3507538
-64.253822 24.801519 14.875415
-1.3496072 23.06571 6.3507013
-64.259972 24.991993 14.921221
-1.2893879 23.057802 6.3409677
-64.176041 25.148836 14.947555
-1.2273198 22.999231 6.3191895
-64.144394 25.310986 14.981829
-1.1672605 23.008272 6.3134232
-64.157196 25.509666 15.044699
-1.1102456 23.005215 6.3052368
-64.168365 25.696131 15.09021
-1.0508509 22.963102 6.287641
-0.99156272 22.977343 6.2831841
-64.136543 26.056448 15.171305
-0.93157762 22.946543 6.2681446
-64.097214 26.22415 15.205906
-0.87982231 22.967106 6.2661467
-64.009521 26.365446 15.228067
-0.81696934 22.948864 6.253655
-64.120132 26.608067 15.299583
-0.76019496 22.93334 6.2309656
-63.992455 26.740925 15.314625
-0.7017414 22.890324 6.2133045
-64.171188 26.99048 15.396504
-0.64124119 22.890467 6.2054048
-63.929119 27.091566 15.389375
-0.584907 22.887068 6.1972275
-63.934826 27.278919 15.434381
-0.53054368 22.880428 6.1885548
-63.961384 27.46792 15.482446
