# .PCD v0.7 - Point Cloud Data file format
VERSION 0.7
FIELDS x y z
SIZE 4 4 4
TYPE F F F
COUNT 1 1 1
WIDTH 1572
HEIGHT 1
VIEWPOINT 0 0 0 1 0 0 0
POINTS 1572
DATA ascii
52.690548 -5.7899203 2.921371
27.633064 32.820229 2.5094357
51.76284 -5.8037467 2.880065
27.763588 32.826599 2.5132546
50.811695 -5.8056221 2.8376641
27.925903 32.879631 2.5196195
49.53957 -5.7778697 2.7808084
28.083035 32.905472 2.5248871
49.00383 -5.8261099 2.7571988
28.15453 32.83448 2.5243604
48.235439 -5.8378525 2.723033
28.377346 32.96146 2.5431213
46.826996 -5.7765141 2.6599569
28.48315 32.919922 2.54462
46.412094 -5.8346024 2.6418228
28.610123 32.91106 2.5478823
45.376167 -5.7946229 2.5954795
116.39134 -15.314857 5.8125191
28.769276 32.961109 2.554142
44.488255 -5.7866893 2.5559258
115.7086 -15.522166 5.7833905
28.912018 32.963963 2.558286
43.592537 -5.769032 2.5159779
29.075756 32.998417 2.5641489
43.310066 -5.8258266 2.4958229
29.198997 32.995056 2.5675435
42.742188 -5.848187 2.4708314
113.59678 -16.060122 5.6712537
29.334866 32.993675 2.5713787
42.033524 -5.8470826 2.4394717
113.00529 -16.256559 5.646349
29.482056 33.005383 2.5760074
41.421764 -5.8492427 2.41243
112.25264 -16.404596 5.6140299
29.592056 32.984203 2.5784321
40.398594 -5.7975078 2.3668518
29.739017 32.987827 2.5827961
40.174458 -5.8563108 2.3573437
110.86408 -16.751131 5.5549746
29.892365 33.011169 2.5880423
39.611538 -5.857378 2.3324828
108.48409 -16.634443 5.4490323
30.008324 32.995518 2.5908635
38.786045 -5.8248935 2.2958021
30.169895 33.014263 2.5671895
37.938 -5.7774553 2.2580309
30.281059 32.985424 2.5694044
37.450039 -5.7815289 2.2365284
30.437157 33.015381 2.5749197
36.983692 -5.7971935 2.2160728
30.611286 33.046295 2.5809999
36.60519 -5.8185673 2.1995425
30.762249 33.062019 2.5859072
36.261951 -5.8408461 2.1845825
30.90836 33.077732 2.5906844
35.834457 -5.856842 2.1658714
31.084042 33.107513 2.5968077
35.36953 -5.860754 2.1389847
31.209408 33.085003 2.5997174
34.798065 -5.836832 2.1137526
31.392204 33.140232 2.6069264
34.268021 -5.8240962 2.0904317
31.534016 33.13504 2.6109219
34.09132 -5.8737926 2.0830922
31.723217 33.182648 2.6180878
33.657715 -5.8684554 2.0640705
31.851974 33.173981 2.6216054
33.254261 -5.8760238 2.0464821
32.087971 33.265415 2.6316373
32.857849 -5.8767939 2.0291538
32.243225 33.278175 2.6366751
32.46122 -5.8726254 2.0117826
78.703598 -14.849782 4.1086836
32.476757 33.383179 2.664381
32.102337 -5.882935 1.9961917
85.034393 -16.301031 4.3976569
32.646297 33.39679 2.6699438
31.51606 -5.8402128 1.9702215
32.8176 33.424229 2.6760325
31.248219 -5.8560152 1.9586695
32.502121 32.926128 2.6499701
31.036125 -5.8905754 1.9497232
32.392826 32.63702 2.6370921
30.667545 -5.8860016 1.9336113
32.144135 32.21199 2.6154974
30.332184 -5.8838086 1.9189758
32.354328 32.289764 2.6244769
30.004368 -5.8899817 1.915619
32.396439 32.167782 2.6217611
29.705021 -5.8950868 1.9025221
32.411266 32.029537 2.6176875
29.41058 -5.899826 1.889644
32.55687 32.030441 2.6221991
29.114754 -5.9055457 1.8767223
32.78495 32.111427 2.6318793
28.83812 -5.9140601 1.8646766
32.233334 31.373175 2.5907927
33.40276 32.599575 2.6668777
28.209602 -5.8368692 1.8363801
32.426865 31.43112 2.5986772
28.175446 -5.8994846 1.8355041
33.479782 32.362282 2.6615777
27.848488 -5.889472 1.821093
33.750805 32.487652 2.6654005
27.573605 -5.887434 1.8090472
30.798824 -6.6367335 1.9577134
33.912453 32.504841 2.6709833
27.397846 -5.9150023 1.8016446
30.748375 -6.7025609 1.9561802
34.206417 32.637932 2.6844168
27.059994 -5.8981428 1.7867079
30.714256 -6.7663426 1.955348
34.456722 32.736897 2.6954079
26.7789 -5.8907938 1.7743555
30.74136 -6.841855 1.9573191
34.750439 32.884491 2.709321
26.445091 -5.8767028 1.7596378
30.692333 -6.9077516 1.9558736
34.820282 32.785244 2.7083616
26.11359 -5.8565979 1.744964
30.734501 -6.9900937 1.9585894
35.04192 32.851067 2.7174335
25.841347 -5.8471746 1.7167149
35.238132 32.896416 2.7250662
25.451435 -5.8141122 1.6996282
64.881989 -15.690952 3.497385
35.383305 32.870991 2.7288609
25.208611 -5.8115692 1.6891865
35.58955 32.917946 2.736886
25.020367 -5.8194919 1.6812042
35.729794 32.905022 2.7409425
24.790863 -5.8228035 1.6714096
36.013401 33.013065 2.7533727
24.585651 -5.8289919 1.6626937
36.133251 32.965801 2.7557282
24.344872 -5.8202777 1.6522951
59.733246 -15.140324 3.2707725
36.262867 32.940273 2.7590866
24.187992 -5.8372331 1.6457797
60.959705 -15.619687 3.3286338
36.472572 32.97897 2.7442389
24.041531 -5.8562264 1.639739
36.680546 33.014774 2.7519622
23.980034 -5.8931189 1.6375384
55.415451 -14.417508 3.0780306
36.870583 33.04491 2.7589521
23.767178 -5.8949795 1.6284775
56.782841 -14.939701 3.1424503
36.959476 32.958782 2.7591677
23.611061 -5.9070516 1.6219621
37.128994 32.961571 2.7646909
23.443356 -5.9129758 1.6148858
55.632439 -14.894032 3.0928736
37.347397 33.015934 2.7733636
23.208313 -5.9056573 1.6047893
55.452915 -14.992235 3.0864015
37.590679 33.073345 2.7829423
23.046654 -5.9137049 1.6021426
54.735172 -14.925616 3.0655208
37.706169 33.022705 2.7851429
22.89801 -5.9225903 1.5959022
53.967403 -14.835752 3.0316329
37.929977 33.078682 2.7940745
22.546265 -5.8783293 1.580345
53.907345 -14.963095 3.0306358
38.141529 33.102978 2.8016686
22.318676 -5.864336 1.5704646
38.304737 33.094337 2.8067169
22.30051 -5.9089065 1.5702479
38.556324 33.172226 2.817245
22.211342 -5.9385681 1.5668244
52.195354 -14.861738 2.9564033
38.698277 33.129604 2.8206105
22.004059 -5.9302731 1.5578976
52.155415 -14.98512 2.9562731
38.813938 33.069008 2.8225951
21.802372 -5.9165173 1.5491438
52.084026 -15.083337 2.9544964
39.042469 33.12899 2.831872
21.63031 -5.9189792 1.5418636
53.349239 -15.610593 3.0150785
39.326275 33.211758 2.8436513
21.526058 -5.9394503 1.5377034
39.56171 33.255913 2.8527126
21.33073 -5.927114 1.5292531
50.439888 -14.974113 2.8832536
39.879456 33.384697 2.8669944
21.152119 -5.923059 1.5216262
50.194881 -15.028872 2.87359
40.072128 33.387962 2.8734665
21.008064 -5.9290366 1.5156026
51.57494 -15.596457 2.9396324
40.307526 33.427849 2.8824415
20.914806 -5.9465871 1.5044
51.317657 -15.639141 2.9095626
40.443733 33.392464 2.8859363
20.86134 -5.9823961 1.5026387
48.774086 -14.96076 2.7937832
40.760223 33.494308 2.8994417
20.550037 -5.9304581 1.4888912
48.718666 -15.065688 2.792881
40.914791 33.466679 2.9037995
20.384319 -5.9226303 1.4818456
44.095459 -13.672616 2.5803108
41.056629 33.433922 2.9075966
20.252247 -5.9308209 1.4764326
43.799633 -13.694806 2.5682387
41.28437 33.454967 2.9158378
20.063988 -5.9158812 1.4683559
43.395496 -13.67074 2.5510116
41.594341 33.55798 2.9292135
19.93845 -5.9191513 1.4631577
43.130867 -13.687084 2.5401855
41.78957 33.568062 2.9360743
19.800201 -5.9231534 1.457444
42.770012 -13.682714 2.525063
41.890656 33.478004 2.9518356
19.641018 -5.9156113 1.4506991
42.411144 -13.668571 2.5098979
42.058052 33.456623 2.9569168
16.858948 -5.0056534 1.3218167
42.126797 -13.673989 2.4981267
42.107948 33.342594 2.9553533
16.682812 -4.9867578 1.3142126
41.838703 -13.689533 2.4863553
42.562782 33.546852 2.9767203
16.571833 -4.9881139 1.3096157
19.061844 -5.8564992 1.4257388
42.803173 33.576641 2.9857969
16.459126 -4.985271 1.30489
19.050224 -5.8956027 1.4258248
43.020969 33.599579 2.9939179
16.351074 -4.9865746 1.3004222
43.392548 33.734581 3.0105076
16.245117 -4.9880896 1.2917942
40.579018 -13.673851 2.4220939
43.728786 33.83831 3.0250125
16.111555 -4.9761648 1.2861178
40.317989 -13.679276 2.4114239
43.871578 33.795921 3.0287476
16.001469 -4.9765511 1.2815936
39.953232 -13.65818 2.3961017
44.176552 33.864395 3.0412116
15.903416 -4.9778185 1.2775817
18.483181 -5.9198899 1.3977265
44.547092 33.997097 3.0577579
15.823311 -4.9837523 1.2743807
44.809402 34.047508 3.0682673
15.714377 -4.9830236 1.2698992
44.969814 33.99522 3.0723929
15.614716 -4.9822931 1.2658019
45.113029 33.942055 3.075911
15.520175 -4.9815674 1.2619181
45.349808 33.968922 3.0533409
15.422459 -4.9835048 1.2579488
45.474361 33.886398 3.0553985
15.33124 -4.9845686 1.2542356
45.849098 34.012344 3.0717735
15.238747 -4.9832859 1.250437
45.923336 33.909153 3.0715594
15.137623 -4.9824681 1.2462971
46.199982 33.942448 3.0820618
15.027069 -4.9760408 1.2416877
46.159119 33.736641 3.0751171
47.966209 35.126949 3.1752982
14.960254 -4.9834514 1.2390841
46.396919 33.758511 3.0839906
14.85789 -4.9792809 1.2387304
46.892979 33.962509 3.1067533
14.782065 -4.9851732 1.2357231
46.573101 33.544941 3.0844622
48.041924 34.658051 3.1654387
14.702715 -4.9865294 1.232501
46.537945 33.358482 3.0782895
48.507835 34.844193 3.1867008
14.590339 -4.9782791 1.2277753
46.56321 33.198299 3.0749459
48.584545 34.714615 3.1859722
14.525122 -4.9859161 1.2252407
48.5065 34.483467 3.1771412
14.437844 -4.9828572 1.221632
48.900501 34.611023 3.1943741
14.346517 -4.981761 1.2178943
49.19075 34.638805 3.205348
14.269738 -4.9835572 1.2148013
49.424114 34.637077 3.2023306
14.174598 -4.9759707 1.2108059
49.675285 34.654232 3.2116351
14.097012 -4.9793043 1.2077127
49.902821 34.632046 3.2191043
13.997087 -4.9701242 1.2035025
50.379189 34.802864 3.2403588
13.922872 -4.9701123 1.2004952
50.590481 34.786915 3.2474437
13.845501 -4.9723239 1.1974021
50.871433 34.798851 3.2577295
13.787055 -4.9797287 1.1951681
51.281937 34.915771 3.2753139
13.713014 -4.9787765 1.1921608
51.017544 34.558636 3.2568336
13.637613 -4.9807596 1.1891537
51.730957 34.872925 3.2902522
13.565433 -4.9824915 1.1862752
51.855206 34.776047 3.2922578
13.478216 -4.9746251 1.1826236
52.491734 35.050835 3.3219633
13.407068 -4.9760718 1.1797881
52.888172 35.140583 3.338438
13.331535 -4.9751921 1.176738
53.042969 35.061066 3.3420229
13.274796 -4.9799285 1.174547
53.92334 35.494339 3.38449
13.211344 -4.9851274 1.1720982
54.504261 35.695274 3.3982801
13.137362 -4.982666 1.169091
54.939701 35.808319 3.4167218
13.060388 -4.9772148 1.1659118
55.094608 35.736423 3.4205465
12.989149 -4.9777875 1.1630764
55.364117 35.71907 3.4298525
12.926884 -4.9797192 1.1606276
55.97562 35.944221 3.4574304
12.865143 -4.980372 1.1581788
56.075176 35.832073 3.4583225
12.777478 -4.9721365 1.1512055
56.576771 35.96394 3.4796968
12.71804 -4.9744539 1.1489009
57.201187 36.188782 3.5077848
12.672319 -4.9818568 1.1472363
57.683186 36.324116 3.528564
12.581265 -4.970818 1.1434379
57.973087 36.308655 3.5387621
12.549603 -4.9869428 1.1424989
58.308907 36.329151 3.5515103
12.485571 -4.9847064 1.139938
58.99316 36.588078 3.5826578
12.400517 -4.9742279 1.1363956
59.346046 36.614864 3.5962129
12.354051 -4.9824033 1.1347311
59.827934 36.722164 3.6098585
12.291965 -4.9802036 1.1322556
60.212002 36.780193 3.6252918
12.237716 -4.9840121 1.1302069
60.314991 36.643116 3.6258855
12.179152 -4.9853845 1.1279449
60.432522 36.515106 3.6272421
12.119857 -4.9837379 1.1255975
61.176563 36.793957 3.661077
12.052242 -4.981092 1.1229086
61.490322 36.777466 3.6722708
11.978712 -4.9727159 1.1198783
61.724312 36.725868 3.6797328
11.936961 -4.9792113 1.1183845
61.976482 36.69236 3.6882977
11.869564 -4.9756942 1.1156957
62.281803 36.666611 3.6990247
11.837785 -4.9881229 1.114714
62.506172 36.605965 3.7059784
11.77366 -4.9822721 1.1121105
63.063522 36.753735 3.7300191
11.717674 -4.9838653 1.1099765
63.331467 36.700504 3.7387958
11.667863 -4.9861631 1.1080986
64.032951 36.921288 3.7698746
11.58502 -4.9694157 1.1045561
64.349937 36.917419 3.7816191
11.561023 -4.9873142 1.1040013
64.49025 36.783413 3.7700214
11.500581 -4.9842663 1.1016111
64.8937 36.811871 3.7856822
11.424881 -4.9703398 1.0984101
65.471664 36.956539 3.8104186
11.373164 -4.9714084 1.0964469
65.624245 36.834381 3.813458
11.339444 -4.9821362 1.0953798
66.089951 36.892902 3.8321581
11.283635 -4.9782443 1.0931605
66.628754 37.007374 3.8548265
11.239252 -4.9838018 1.0915813
67.054588 37.02972 3.8712893
11.191709 -4.9851418 1.0868709
67.301689 36.964691 3.8791828
11.148823 -4.987771 1.0853021
67.543625 36.903988 3.8869925
11.101149 -4.9908247 1.0835638
68.33625 37.127148 3.9216065
70.65461 38.430519 4.0366778
11.007854 -4.9654207 1.0794934
69.334496 37.477318 3.9666896
10.993077 -4.9834065 1.0793238
69.936378 37.609924 3.992228
10.944715 -4.9853177 1.077543
71.247734 38.105885 4.0522542
10.893132 -4.9829235 1.0755503
71.289215 37.913368 4.0498061
10.840399 -4.9785142 1.0734727
71.430138 37.7841 4.0524654
73.553345 38.944492 4.1571522
10.798091 -4.9832263 1.0719887
73.621277 38.742329 4.1555481
10.747889 -4.9819894 1.0700808
73.769073 38.592342 4.1580811
10.70289 -4.9814186 1.0683848
74.326088 38.679443 4.181087
10.654474 -4.980763 1.0665616
75.301857 38.969418 4.2242279
10.607788 -4.9809003 1.0648232
75.53833 38.861507 4.2310667
10.571296 -4.9847994 1.0635512
76.46711 39.135979 4.2721391
10.535972 -4.9924703 1.060569
76.988045 39.16415 4.2926545
10.479888 -4.9851851 1.0583318
77.205353 39.049622 4.2986908
79.435745 40.212257 4.4075146
10.433512 -4.982492 1.0565588
76.990044 38.719215 4.2838321
79.725502 40.137131 4.4171391
10.407364 -4.9952316 1.0558835
78.599159 39.303192 4.3572817
10.336542 -4.9780679 1.0528865
78.57151 39.058044 4.3513722
81.317467 40.464088 4.484848
10.297794 -4.9794321 1.0514934
79.467964 39.293343 4.3905454
81.477249 40.316349 4.4880986
10.273367 -4.9927597 1.0509025
78.715302 38.661514 4.3491349
81.408035 40.023724 4.4796982
10.222635 -4.9873228 1.0489185
81.678886 39.922203 4.488183
82.796318 40.484142 4.5422993
10.176571 -4.983531 1.0471456
81.631721 39.67017 4.4814711
83.095154 40.401882 4.5522614
10.142309 -4.9901738 1.046048
82.845512 40.016914 4.5351653
10.104912 -4.9925551 1.0447395
82.904396 39.805702 4.5333924
84.165001 40.428165 4.5942206
10.047032 -4.9815898 1.0423756
83.332336 39.775841 4.5494332
10.019908 -4.9912438 1.0416157
85.012245 40.344948 4.6255426
9.9658556 -4.9832821 1.0377191
86.03788 40.587219 4.6700344
9.9282932 -4.9837298 1.0363743
86.373589 40.511414 4.681685
9.8926039 -4.9883466 1.0351975
86.346092 40.230572 4.6753531
9.8399868 -4.979538 1.0330963
87.24398 40.410484 4.7137666
91.002556 42.198311 4.8938451
9.8285675 -4.9967775 1.0330963
88.837875 40.924854 4.7856121
9.7775383 -4.9906754 1.0311211
9.7324028 -4.9861889 1.0293981
93.337357 42.498646 4.9907651
9.6861897 -4.9797187 1.027591
90.870071 41.099194 4.8215666
94.006691 42.55447 4.9695101
9.6555767 -4.9866638 1.0266664
95.017647 42.732327 5.0119648
9.6170635 -4.9860411 1.0252795
94.646034 42.293156 4.9896731
9.571022 -4.9790535 1.0234724
95.315826 42.341343 5.0165982
96.770401 43.003376 5.0849762
9.5244322 -4.9744987 1.0217074
96.088295 42.400326 5.04774
98.432747 43.46006 5.1578212
9.4981136 -4.9817004 1.0209509
98.557938 43.239212 5.158823
104.35733 45.843906 5.4308324
9.4858885 -4.9975967 1.020909
99.028648 43.183544 5.1762304
104.50258 45.626949 5.4327106
9.428113 -4.984663 1.0218724
99.474518 43.08139 5.191885
104.76032 45.424423 5.4392648
9.3949833 -4.9877148 1.02077
100.19143 43.107658 5.2203965
104.84281 45.155613 5.4378452
9.3596468 -4.9870334 1.019498
100.63354 43.032578 5.2364268
104.798 44.854717 5.4309158
9.3313522 -4.993206 1.0186501
100.85409 42.836819 5.2417283
104.85395 44.575077 5.4283276
9.2824326 -4.9845223 1.0166996
101.53918 42.840893 5.2686954
104.74252 44.223518 5.4179749
9.2361317 -4.9754419 1.014834
102.20234 42.854813 5.2949944
104.74442 43.945095 5.413341
9.2074738 -4.9818501 1.0139861
104.07859 43.348068 5.3771067
9.177412 -4.9851127 1.0130109
104.26936 43.140995 5.4024186
107.94543 44.69598 5.5739617
9.1423321 -4.9835839 1.0117389
103.31953 42.465565 5.3535256
108.20354 44.518272 5.5812159
9.1042957 -4.9827123 1.0103821
107.63314 43.958183 5.5493059
109.027 44.539772 5.6142163
9.0798264 -4.9896474 1.0097036
107.46594 43.59288 5.5366426
9.0621128 -5.000493 1.0093645
107.43961 43.29887 5.5307717
8.9967766 -4.9788427 1.0065237
108.39751 43.372547 5.5700622
8.9559784 -4.973155 1.0049549
108.47668 43.108315 5.5689301
8.9439878 -4.9879179 0.99936986
108.56921 42.861435 5.5686364
8.8844166 -4.9696965 0.99686515
8.8876095 -4.9977932 0.9977001
112.28357 43.711079 5.7304096
8.8417263 -4.9855795 0.9958216
8.8180275 -4.9940729 0.99523711
8.7700825 -4.9827929 0.99331689
8.7501755 -4.9909964 0.99285769
8.6931334 -4.9721823 0.99043649
8.6608086 -4.9723611 0.98935115
8.6448078 -4.9832687 0.98910069
8.6013412 -4.9753594 0.98743087
8.5688362 -4.9739585 0.98630375
8.5414219 -4.9754887 0.98542714
8.5164137 -4.9817476 0.98475921
8.4824181 -4.9787068 0.98581767
8.4679728 -4.9903655 0.98564959
8.4308958 -4.9864855 0.98430479
8.4016247 -4.9868493 0.98333818
8.363821 -4.9790854 0.98186731
8.3351879 -4.9816003 0.98098475
8.3085594 -4.9846749 0.98018628
8.2903938 -4.9927626 0.97980803
8.2622986 -4.9944034 0.97892547
8.2133522 -4.9783192 0.97686625
150.2877 50.225212 7.3004308
8.1974754 -4.9880314 0.97661412
150.45183 49.901161 7.3026333
8.1682701 -4.9892526 0.97568953
150.71648 49.563026 7.3087425
8.1444979 -4.9930506 0.97501713
150.90239 49.229645 7.3117762
8.124176 -4.998754 0.97451282
151.09308 48.913269 7.3152671
8.0833092 -4.9895177 0.97073293
151.36386 48.575199 7.3217502
8.0507708 -4.9853477 0.96956408
151.54756 48.23978 7.3247838
8.0253773 -4.9862804 0.96877092
151.68506 47.904972 7.3259888
7.9978495 -4.9881058 0.96793604
151.97772 47.571999 7.3335524
7.9691067 -4.9868064 0.96697593
152.22713 47.256016 7.3396196
7.9350348 -4.9796863 0.96568179
7.9039745 -4.9779277 0.96463823
7.8884525 -4.9879918 0.9644295
7.8562269 -4.983007 0.96326065
7.8329935 -4.9869251 0.96263444
7.8018293 -4.9835434 0.96154904
7.7716656 -4.9789968 0.9604637
7.7336569 -4.969955 0.95900261
7.7096376 -4.9716644 0.95689338
7.7082658 -4.9932814 0.95747519
7.6661038 -4.9799042 0.95577133
7.6378222 -4.977325 0.95481551
7.6107693 -4.9748006 0.95390123
7.5929737 -4.9837341 0.9536103
7.5732894 -4.9889183 0.95315319
7.5505548 -4.9901719 0.9524883
7.5264134 -4.9928384 0.95182335
7.5025439 -4.9937463 0.95111686
7.4728642 -4.9879713 0.95003635
7.4292207 -4.9713111 0.94820786
7.4189696 -4.9860225 0.94833249
7.395009 -4.9853888 0.94758445
7.3673687 -4.9829154 0.94599342
7.3452954 -4.9858088 0.94541293
7.3214254 -4.9849153 0.94466656
7.3016763 -4.9908853 0.94425189
7.2828817 -4.9958386 0.94383729
7.2419233 -4.9773722 0.94205433
7.2181368 -4.9789147 0.94139087
7.2069325 -4.9912848 0.94143236
7.1546226 -4.9605541 0.93894452
7.1499839 -4.9813991 0.93944204
7.1421576 -4.9971204 0.93969083
7.1158314 -4.9926758 0.93877864
7.0786843 -4.979629 0.9372859
7.0649757 -4.9900069 0.93720305
7.0361352 -4.9824829 0.93481588
7.0271101 -4.9977188 0.93502229
6.9833364 -4.9759283 0.93308222
6.9805875 -4.9958682 0.9336189
6.9436183 -4.9809613 0.93209159
6.9398589 -5.0017328 0.93262821
6.8973541 -4.9785461 0.9306882
6.8746381 -4.9795232 0.93006903
6.8607802 -4.9882092 0.92994523
6.8408308 -4.9891953 0.92940861
6.8083663 -4.9790854 0.92817032
6.7847514 -4.9767051 0.92742729
6.7694473 -4.9825482 0.92717963
6.7436395 -4.9794049 0.92635405
6.7252541 -4.9825907 0.92721015
6.7048116 -4.98241 0.92662966
6.689395 -4.9907503 0.92646378
6.6725183 -4.9964223 0.92617357
6.6425319 -4.9849963 0.9249711
6.62187 -4.9860973 0.92443204
6.6145759 -5.0026731 0.9247638
6.5676184 -4.9709511 0.92244172
6.5674405 -4.9967413 0.92327106
6.5296788 -4.9763126 0.92157102
6.5050797 -4.9702611 0.92070031
6.4922657 -4.9810209 0.92070031
6.473505 -4.9827099 0.92024416
210.26326 31.846277 9.5446415
6.4564815 -4.9854445 0.91987097
6.4412107 -4.9931498 0.9172352
6.4231005 -4.99542 0.91682434
6.3770766 -4.962491 0.91452324
6.382133 -4.994874 0.91571486
6.3666649 -5.0011373 0.91550946
6.3299818 -4.9780817 0.91378367
6.3159285 -4.986865 0.91370147
196.30688 25.857908 8.9242458
6.2816582 -4.969286 0.91222227
194.36899 25.11282 8.8388443
6.2708788 -4.9791026 0.91226327
6.2683163 -5.0022783 0.91296184
190.22305 23.637426 8.6569357
6.2389045 -4.989419 0.91177022
188.43629 22.95993 8.5783854
211.58212 25.812443 9.564991
6.2208643 -4.9899149 0.91131824
183.31511 21.90617 8.3579245
6.2008162 -4.9906945 0.91082513
185.50763 21.690336 8.4489403
6.1680284 -4.9729347 0.90878737
183.83966 21.052067 8.3757153
208.13963 23.867224 9.410614
6.1679411 -4.9964166 0.90956628
206.27246 23.175503 9.3288031
6.1509094 -5.0008802 0.90927935
179.91878 19.718393 8.2045393
6.1271482 -4.9944725 0.90845942
179.3495 19.225899 8.1783276
6.1092205 -4.994616 0.90800846
176.96471 18.560787 8.0750113
6.0945826 -5.0020142 0.90788543
198.83386 20.367853 9.0031271
6.0685902 -4.9922633 0.90690154
174.06798 17.387989 7.9480014
6.0472279 -4.987534 0.90620458
6.0302982 -4.9916258 0.90591764
190.96439 18.165058 8.662591
6.0115304 -4.9921722 0.90546668
194.4722 18.019159 8.8097439
5.9937344 -4.9919553 0.90501571
193.14502 17.452074 8.7516251
5.9686708 -4.983717 0.90411377
165.76965 14.541122 7.5871158
190.51233 16.738762 8.63799
5.9620404 -5.0006318 0.90452373
189.92058 16.215038 8.6111183
5.9442887 -5.0002551 0.90407276
163.29001 13.543584 7.4789701
188.49895 15.660892 8.5492029
5.9017487 -4.9683928 0.90194094
161.83464 13.005661 7.4157333
5.901257 -4.9927731 0.90276086
5.8858528 -4.9953885 0.90247393
186.23613 14.122259 8.4485693
5.8628159 -4.9902191 0.90173602
182.41495 13.360556 8.2849464
184.89812 13.544443 8.3902855
5.8469696 -4.993063 0.90144902
156.85719 11.095596 7.1996064
5.8259983 -4.9875402 0.90075207
155.51567 10.645285 7.1416535
5.8081141 -4.9893427 0.90038311
154.04732 10.14896 7.0782518
5.7978773 -5.0000396 0.90050608
176.82465 11.248912 7.9588776
179.03006 11.390773 8.0513115
5.7681122 -4.9814935 0.89915323
151.49806 9.2752323 6.8964872
175.27141 10.749508 7.8927255
5.7569299 -4.9927573 0.8992762
150.53777 8.8306484 6.8552694
173.71585 10.20779 7.8264103
5.7384787 -4.9923944 0.89882523
149.31627 8.3904676 6.8031969
172.20352 9.6930838 7.762013
5.7204542 -4.9905171 0.89833331
148.3365 7.9977303 6.7613673
173.78412 9.3873339 7.8273082
5.7020521 -4.9900346 0.89788234
147.0824 7.5674243 6.7080293
169.55081 8.7381763 7.6490526
5.6831279 -4.9886823 0.89739037
145.69453 7.1368451 6.6491413
171.11856 8.3980646 7.7138171
5.6662955 -4.9882908 0.89583504
170.11792 7.9614706 7.6711307
5.6550608 -4.9993153 0.89595747
143.72939 6.3464975 6.5654821
170.7822 7.5559459 7.6981058
5.638279 -4.9999218 0.89559019
142.69325 5.9631376 6.5214896
169.4545 7.0952873 7.6417885
5.6252131 -5.0050492 0.89546776
141.66824 5.5986457 6.4780278
163.45207 6.4700136 7.3898726
168.46321 6.6704631 7.5996327
5.5989375 -4.9931326 0.89444757
167.15576 6.1908894 7.5442133
5.5742292 -4.9813108 0.89346814
139.64168 4.832119 6.3921237
165.98434 5.7543283 7.4945893
5.5644112 -4.9911904 0.89359057
160.64331 5.2026839 7.270546
164.95461 5.3436832 7.450964
5.5510168 -4.9986949 0.89354974
137.1562 4.0852237 6.3778849
162.13016 4.837276 7.4396996
163.93336 4.8915772 7.516367
5.5311823 -4.9940553 0.8929376
136.35214 3.7395406 6.3433037
162.54207 4.465384 7.4567413
5.5186911 -4.9997358 0.892856
159.84035 4.0278521 7.3414712
163.95152 4.1323252 7.5162425
5.5000505 -4.9988818 0.89240706
134.05208 3.0313776 6.2448263
5.4761367 -4.9874635 0.89146847
133.13219 2.6967535 6.2054353
159.45059 3.2342796 7.3241391
5.4678259 -4.999619 0.89171332
132.30782 2.380758 6.1701493
158.2567 2.851007 7.2730966
5.4539051 -5.0060387 0.89163172
131.06572 2.0249407 6.1171165
5.4425116 -5.0154376 0.89171332
130.14838 1.6920409 6.0779328
158.39392 2.0603509 7.2784038
5.4238386 -5.0109396 0.89114201
129.02209 1.3858263 6.0299172
157.30939 1.6895831 7.2321301
5.3981161 -4.996995 0.89008093
128.03091 1.061847 5.9876652
156.29546 1.2948976 7.1888828
5.3796072 -4.9946074 0.88959122
126.90426 0.74204338 5.9396911
155.15562 0.90455914 7.1403284
5.3565054 -4.98241 0.88865262
125.95722 0.45215431 5.8993878
154.1689 0.54952604 7.0983248
5.3532553 -5.0060611 0.88942796
124.69441 0.13107353 5.8456917
153.16576 0.15564047 7.0556583
5.3317556 -4.9973769 0.88865262
123.58254 -0.16048081 5.740221
152.23982 -0.20444059 6.9443283
5.3162999 -4.9975443 0.88832611
122.37486 -0.43482253 5.6895084
5.2894554 -4.9817457 0.88718343
121.33807 -0.73888707 5.6460109
150.39093 -0.92551196 6.8667626
5.2865086 -5.0039124 0.88791806
120.06461 -1.012886 5.5925927
149.27888 -1.2705743 6.8201499
5.2720766 -5.0056286 0.8876732
119.06284 -1.2726481 5.5506124
148.375 -1.5986528 6.78231
5.2429199 -4.9854031 0.88632643
117.68836 -1.5559924 5.493012
147.50787 -1.9648421 6.7460694
5.2320042 -4.994029 0.88640809
116.42477 -1.8121672 5.4400859
5.2210526 -5.0015101 0.88644886
115.37447 -2.0554106 5.3961377
143.37627 -2.5709193 6.5729003
114.11032 -2.321573 5.3432522
112.84972 -2.5707023 5.2905307
145.793 -3.3446519 6.6751041
156.25182 3.4427283 6.6118889
134.02261 2.60079 5.7499542
156.34819 2.6768017 6.6150274
19.67181 29.91794 1.9750422
153.18097 2.2740574 6.4920506
155.22705 2.3052502 6.5713501
19.760696 29.912552 1.9765812
130.9061 1.6016095 5.6285658
151.66034 1.8642757 6.4329066
19.867119 29.917032 1.9787958
153.20714 1.5222039 6.4926934
19.958038 29.907726 1.9802597
128.41275 0.97773248 5.4953823
20.02327 29.861237 1.9799969
127.51424 0.64654779 5.4607377
148.97559 0.76177353 6.2862468
20.146912 29.893318 1.9834876
147.44499 0.40576011 6.2273164
20.239017 29.884876 1.9850266
125.32818 0.057038076 5.3765841
147.45244 0.07188604 6.2275791
20.339405 29.896275 1.9873912
145.89867 -0.30076683 6.1678233
20.415657 29.847918 1.9873163
149.58818 -0.66077131 6.3097811
20.528214 29.872011 1.9903566
122.22534 -0.81857485 5.2573352
148.57831 -0.99291009 6.2710075
20.601429 29.837576 1.9906944
120.77577 -1.1155815 5.2016706
147.45218 -1.361115 6.2278047
20.701572 29.827599 1.9923835
119.45637 -1.3954029 5.1510358
20.801495 29.823217 1.9942602
145.72289 -2.0326159 6.1615925
20.901478 29.831196 1.9965498
144.85297 -2.375761 6.1283364
20.988663 29.805515 1.9974883
116.27627 -2.1885755 5.0291967
143.85635 -2.7121916 6.0902386
21.076359 29.780413 1.9984641
143.10541 -3.0219586 6.0615993
21.161995 29.764439 1.9997028
113.41959 -2.6777122 4.9197445
140.34512 -3.3206162 5.9557128
21.270351 29.765015 2.001955
141.34648 -3.6779072 5.9945617
143.33553 -3.7301707 6.0710955
21.354725 29.740112 2.0028934
111.1741 -3.1357219 4.8338642
21.44416 29.729116 2.0043945
110.03815 -3.3822892 4.7904735
139.40059 -4.2974892 5.9204297
21.551723 29.727095 2.0065718
21.66169 29.74069 2.0093117
107.23598 -3.7882757 4.6832733
21.74229 29.714947 2.0101752
105.77394 -4.003942 4.6273837
21.853378 29.71682 2.0125773
104.24306 -4.1896825 4.5688291
21.942772 29.697653 2.0138535
103.09936 -4.375195 4.5251756
22.047554 29.707535 2.0232375
101.2863 -4.5535579 4.455811
22.141117 29.681587 2.0244069
99.985168 -4.7379484 4.4061522
22.228577 29.652399 2.0253501
98.114532 -4.868576 4.3345351
22.334351 29.66238 2.0279527
134.47424 -7.0374866 5.7355318
22.43829 29.65687 2.0300274
95.147675 -5.1825275 4.2212167
22.540127 29.647804 2.0319514
93.50473 -5.3016701 4.1583829
22.674976 29.698654 2.0365157
91.691879 -5.4202514 4.0718541
22.777111 29.68886 2.0384395
89.081665 -5.4796915 3.9722848
22.879326 29.678743 2.0403633
87.704628 -5.5903254 3.91996
22.945271 29.628204 2.0402126
85.622948 -5.671154 3.8406706
23.115273 29.708286 2.0465121
82.894218 -5.6801629 3.7365069
23.176815 29.644842 2.0458708
79.92025 -5.6508069 3.6228943
23.262375 29.621527 2.0470402
76.986099 -5.6323247 3.5108504
23.380184 29.625338 2.049794
75.66581 -5.7099214 3.4606924
23.510941 29.658638 2.0397887
73.213844 -5.6839161 3.3670607
23.552326 29.572592 2.0380335
71.066154 -5.6915159 3.2851567
23.705841 29.624407 2.0430756
69.603027 -5.7397242 3.2295084
23.788723 29.583698 2.043673
67.731491 -5.7259841 3.1580992
23.876846 29.567877 2.045167
66.093376 -5.749496 3.0957279
23.979206 29.547453 2.0468476
63.881851 -5.705605 3.0112844
24.068935 29.515423 2.0478933
62.970947 -5.7622528 2.9767747
122.19898 -11.36645 5.2536931
24.184925 29.530451 2.0509932
61.358704 -5.7581663 2.9153371
24.281708 29.507227 2.0524871
59.974098 -5.7687225 2.8626394
120.53777 -11.804086 5.1920319
24.384941 29.492296 2.0543919
58.617126 -5.7642989 2.8109498
24.498417 29.502344 2.0573049
57.389858 -5.7831626 2.7643023
119.00061 -12.227262 5.1351509
24.601715 29.480701 2.0590229
55.748695 -5.7409477 2.7016697
24.683464 29.442032 2.0597327
55.175674 -5.8026156 2.6801195
117.419 -12.608632 5.0765147
24.812656 29.471224 2.0636168
53.951218 -5.8039584 2.6335468
116.6296 -12.821783 5.0473833
24.926064 29.461519 2.0730839
52.697197 -5.7857909 2.5857787
25.008469 29.42276 2.0738344
51.903549 -5.8105655 2.5557137
25.099358 29.400614 2.0752983
50.648125 -5.7908134 2.5079083
25.247879 29.434759 2.0798402
49.365181 -5.7520404 2.4589825
25.351379 29.422037 2.0819046
48.674957 -5.776206 2.4328761
25.410519 29.358278 2.0813792
47.820103 -5.789681 2.3872731
25.555363 29.385731 2.0856581
46.806816 -5.7739053 2.3490195
25.675835 29.387367 2.0885859
46.48 -5.8349423 2.3370099
25.764034 29.359524 2.0898621
45.736115 -5.8471127 2.3090611
100.7588 -13.228777 4.4177823
25.921371 29.406075 2.0950418
44.936375 -5.8479443 2.2789624
26.00618 29.361639 2.0957551
44.28783 -5.8576431 2.2546091
106.85718 -14.557277 4.6541228
26.114784 29.357903 2.0982699
43.402599 -5.8389273 2.2212114
26.216179 29.333357 2.0999966
42.740841 -5.8479929 2.1963763
109.60573 -15.484912 4.7624335
26.355659 29.354973 2.114953
42.111313 -5.8507023 2.1727276
26.470818 29.357668 2.1178646
41.421432 -5.8530231 2.1468177
26.598282 29.357527 2.1210036
40.353748 -5.7869782 2.1063399
26.682858 29.316568 2.1218734
40.250694 -5.8606191 2.1028929
26.777084 29.292692 2.1234994
39.621326 -5.8625703 2.0792809
26.876606 29.257744 2.1249363
38.963444 -5.8495231 2.0545201
27.014545 29.279417 2.1290205
38.4534 -5.8536339 2.0459514
27.089363 29.231504 2.1294742
37.493515 -5.7921166 2.0093129
27.177536 29.182201 2.1302304
37.263969 -5.8404498 2.000947
27.31271 29.19895 2.1341257
36.634674 -5.8167887 1.9770442
27.426853 29.196167 2.1369238
36.013634 -5.8015966 1.9535151
27.503555 29.132612 2.1369996
35.468445 -5.7931161 1.9328989
78.700981 -13.320293 3.6123996
27.59203 29.088217 2.1379449
34.979393 -5.7853718 1.9144117
27.712738 29.091793 2.1411214
34.403 -5.7660947 1.8925631
27.808388 29.054989 2.1128268
34.073666 -5.7887969 1.880313
27.898739 29.011917 2.1138647
33.691784 -5.7939825 1.8659713
79.923241 -14.300752 3.6650605
28.058544 29.058224 2.1192024
33.326611 -5.809751 1.8523394
81.560921 -14.814201 3.7302699
28.160221 29.021439 2.1207223
33.125683 -5.8486314 1.8450565
80.002602 -14.716006 3.6709614
28.284302 29.020563 2.1238358
32.846718 -5.8685956 1.8347111
79.68586 -14.840505 3.6599436
28.483379 29.108122 2.1313605
32.483757 -5.8799992 1.8211538
78.704628 -14.857581 3.6231933
28.55138 29.032393 2.1309528
32.101009 -5.8797092 1.7543615
77.559196 -14.822271 3.447432
28.658875 29.011395 2.1331027
31.517971 -5.8347774 1.7331415
28.909637 29.152636 2.1434815
31.222542 -5.8537183 1.722692
29.021881 29.124048 2.1455574
31.072716 -5.895185 1.7176278
29.177502 29.153318 2.1503758
30.781979 -5.9039907 1.7072853
73.815628 -14.798966 3.3131576
29.317371 29.170273 2.1544533
30.413246 -5.903584 1.6940897
70.769241 -14.35408 3.2008524
29.532314 29.250381 2.1622376
30.005173 -5.890152 1.6793962
29.635738 29.215302 2.1639426
29.778812 -5.9081645 1.6714431
29.824959 29.282436 2.201551
29.413097 -5.900373 1.6583188
31.200352 -6.2882366 1.7251529
29.936657 29.254993 2.2037444
29.14291 -5.9117303 1.6487609
30.907272 -6.2992325 1.7147747
30.057789 29.237085 2.2064672
29.052128 -5.9562478 1.6458721
30.232658 29.286251 2.2125177
28.212116 -5.8400397 1.6149871
30.362991 29.271029 2.2155807
28.189545 -5.9000835 1.6146662
30.52573 29.300093 2.2207613
23.825436 -4.9602304 1.4515398
30.6689 -6.5321689 1.7081412
30.660179 29.304605 2.2245052
27.559162 -5.8866272 1.6343595
30.708221 -6.6185503 1.7577834
30.779408 29.275984 2.2269254
23.298622 -4.9493389 1.4678323
30.711334 -6.6909852 1.7585285
30.796249 29.153294 2.2239757
23.117279 -4.957202 1.4611638
30.725357 -6.7632313 1.7596834
30.94453 29.170626 2.2284758
22.918465 -4.9663067 1.453862
30.723003 -6.8403277 1.7602794
30.99041 29.066614 2.2268498
22.653358 -4.9541698 1.4439149
30.717968 -6.9110937 1.7607265
31.035206 28.972914 2.2254884
22.468517 -4.9583812 1.4370974
30.702995 -6.9766002 1.7607638
31.039078 28.843891 2.2220473
22.264347 -4.9630437 1.429572
25.961246 -5.879282 1.574976
31.057663 28.713648 2.2189841
22.046562 -4.9612365 1.4214878
31.062485 28.575771 2.1959033
21.841213 -4.9575081 1.4138507
31.135731 28.51716 2.1963141
21.647327 -4.959702 1.4066978
25.141747 -5.8528318 1.5443901
31.16077 28.40011 2.1938491
21.44978 -4.9599853 1.3993959
31.220257 28.317259 2.1932516
21.301453 -4.9682426 1.3939941
31.371212 28.334538 2.1978455
21.089012 -4.9627995 1.3860961
31.419277 28.240341 2.1966503
20.930473 -4.9706292 1.3803217
31.687492 28.358915 2.2071824
20.747238 -4.967257 1.3552337
31.828594 28.364346 2.211216
20.549782 -4.9648066 1.3481152
31.939236 28.323666 2.2131953
20.393883 -4.968997 1.3425584
32.197853 28.434269 2.2232795
20.234779 -4.9697132 1.3368564
32.352413 28.45005 2.2279854
20.042389 -4.9659033 1.3299195
32.521061 28.461946 2.2329898
19.917778 -4.9765615 1.3255612
32.546425 28.349478 2.2307491
19.743004 -4.970572 1.3192418
32.896149 28.545588 2.2456508
19.575371 -4.9711819 1.3132491
32.921581 28.421558 2.2311087
19.417236 -4.9701281 1.3075833
32.985973 28.34487 2.2309232
19.295277 -4.9771204 1.3032978
33.158787 28.373384 2.2364833
19.135445 -4.977653 1.2975957
33.298294 28.354126 2.2398934
18.993969 -4.9810858 1.2925837
33.473438 28.372143 2.2452683
18.847927 -4.9789953 1.2873538
33.62101 28.375143 2.2494941
18.656025 -4.965766 1.2852833
33.744484 28.344791 2.2521996
18.536331 -4.9736233 1.2810743
34.194843 28.607286 2.2715859
18.394337 -4.9706502 1.2759504
34.314384 28.582022 2.2743289
18.279449 -4.9787893 1.2719245
34.4482 28.557983 2.2775168
18.137619 -4.9779191 1.2668371
34.633266 28.578705 2.2832994
18.01638 -4.9795485 1.2625184
34.77433 28.570736 2.2871172
17.873341 -4.9785953 1.2573946
35.121235 28.725824 2.3009062
17.746225 -4.978765 1.2528561
35.356709 28.792492 2.3177171
17.653093 -4.98772 1.2496355
35.514229 28.795731 2.3223367
17.495499 -4.9800272 1.2439258
35.697941 28.804111 2.3278503
17.376995 -4.9812016 1.239717
35.833458 28.781294 2.3312032
17.268309 -4.9834838 1.2358739
35.911404 28.7143 2.3317993
17.108297 -4.9728122 1.2300546
36.08593 28.712633 2.3368287
16.992844 -4.9732194 1.2259555
36.297626 28.752689 2.3439815
16.914137 -4.9840221 1.2188566
36.368866 28.678881 2.3442421
16.791409 -4.9840326 1.2145345
36.690536 28.798122 2.3565736
16.674789 -4.9839821 1.2104306
36.808628 28.751148 2.3588834
16.542622 -4.9748735 1.2056727
37.055637 28.821917 2.3678615
16.456585 -4.9843779 1.2027674
37.301167 28.878784 2.3764672
16.34207 -4.983386 1.198736
37.436333 28.843573 2.3795967
16.246983 -4.9857492 1.1954309
37.600021 28.842411 2.3844025
16.137672 -4.9870481 1.1916175
37.75729 28.818356 2.3797112
16.009216 -4.9778776 1.1870049
37.870964 28.769598 2.3818984
15.931781 -4.9852233 1.1843901
38.174145 28.878729 2.3934631
15.790673 -4.9732127 1.1793053
38.344688 28.862743 2.3981338
15.734854 -4.9891539 1.177562
38.541142 28.877947 2.4043241
15.624655 -4.9831028 1.1736395
38.742756 28.901922 2.4108849
15.521352 -4.9834523 1.1700441
38.996643 28.949055 2.4195585
15.432729 -4.9859624 1.1683354
39.166409 28.940062 2.4244144
15.346514 -4.9875431 1.1653496
39.211311 28.838428 2.4233766
15.229789 -4.9812603 1.1611986
39.205647 28.680609 2.4195216
15.136406 -4.9819961 1.1579579
39.388123 28.674593 2.4248593
15.061326 -4.9865994 1.1554091
39.546745 28.660698 2.4293075
14.957183 -4.9822445 1.1517314
39.817905 28.720936 2.4388707
14.877641 -4.9870982 1.1490369
40.05312 28.752199 2.446692
14.781879 -4.9823346 1.1456505
40.247612 28.762766 2.4208479
14.686595 -4.9814343 1.142337
40.453552 28.763845 2.4270017
14.604111 -4.98248 1.1394968
40.508274 28.661873 2.4263463
14.533917 -4.986773 1.13713
41.394318 29.186476 2.4645429
14.438866 -4.9846301 1.1338165
41.363907 29.006731 2.4596272
14.346661 -4.980473 1.1305758
41.558834 29.005917 2.4654531
14.267638 -4.9800024 1.1278448
41.63406 28.921963 2.4658537
14.159389 -4.9709396 1.122757
41.778831 28.871433 2.4690943
14.089046 -4.9746213 1.1203963
41.84549 28.775103 2.4689851
14.036298 -4.9841137 1.1187255
42.17868 28.877611 2.4812925
13.945344 -4.9810228 1.1155659
42.460697 28.923832 2.4908326
13.876474 -4.9856429 1.1132778
42.75631 28.984026 2.501101
13.781737 -4.9761252 1.1099001
42.883221 28.934021 2.5038681
13.715683 -4.9812369 1.107721
43.131863 28.958214 2.5119517
13.645206 -4.9840903 1.1053603
43.311504 28.932398 2.5168674
13.566809 -4.9805279 1.1026363
43.578373 28.978807 2.5260069
13.506266 -4.9870911 1.1006751
43.860039 29.022326 2.5355468
13.419927 -4.9818254 1.0976607
44.114922 29.045692 2.543849
13.351542 -4.9816642 1.0953363
44.131817 28.915091 2.5415914
13.293344 -4.9895992 1.093484
44.62302 29.093197 2.5604529
13.203244 -4.9801736 1.0914326
44.797287 29.063395 2.5651865
13.157226 -4.9892759 1.0900124
45.031796 29.079836 2.5727603
13.065497 -4.9808226 1.0867717
45.395386 29.164509 2.5857596
13.007574 -4.9851141 1.0848782
45.542004 29.11301 2.5892186
12.936026 -4.9815226 1.0824022
46.273624 29.458941 2.619077
12.861362 -4.9798231 1.0798533
45.462807 28.754259 2.5793147
12.812417 -4.9874692 1.0783241
47.039658 29.650377 2.6468229
12.737547 -4.9813118 1.0757024
45.928864 28.770035 2.5941343
47.387951 29.732267 2.659349
12.674535 -4.9841385 1.0736269
46.047199 28.686007 2.5961008
48.108578 30.037796 2.6880784
12.586569 -4.9733791 1.0704954
46.124226 28.580708 2.5963554
48.148914 29.901232 2.6865492
12.524245 -4.9722047 1.0683835
48.007969 29.659756 2.6772275
12.481198 -4.9825687 1.0671091
48.22929 29.641085 2.6837816
12.423276 -4.9854255 1.0652156
48.504181 29.65576 2.6927028
12.351486 -4.978744 1.0627031
48.843651 29.722795 2.7047186
12.291495 -4.9811606 1.0596712
49.440201 29.932413 2.727695
12.2412 -4.9857578 1.0580732
49.445744 29.777748 2.724782
12.173986 -4.9804144 1.0557488
49.821449 29.862448 2.7383275
12.11935 -4.9846597 1.0540055
49.958942 29.777189 2.7409854
12.060495 -4.9841304 1.0520443
50.282917 29.820086 2.7520914
11.996098 -4.9793019 1.0498288
50.572136 29.846212 2.7617769
11.939019 -4.9814391 1.0479765
50.985039 29.927734 2.7764874
11.882946 -4.9814854 1.0461243
51.17532 29.883665 2.7651954
11.824807 -4.9790258 1.0441631
51.522369 29.940609 2.7772632
11.770491 -4.9817605 1.0424198
52.104862 30.118725 2.7991233
11.721874 -4.9860864 1.0408944
52.435638 30.148478 2.8101792
11.666968 -4.9833932 1.0390421
52.534599 30.057487 2.8115883
11.604195 -4.980814 1.0369356
52.871346 30.081614 2.822753
11.563457 -4.9886236 1.0357372
53.330814 30.183104 2.8393016
11.509229 -4.9866757 1.0299238
53.552311 30.155272 2.8458414
11.435979 -4.9763808 1.0273718
54.229534 30.379858 2.8716755
11.398787 -4.9854407 1.0263294
54.381802 30.295076 2.8749633
11.349736 -4.9855547 1.0247478
54.662487 30.297436 2.8839965
11.290769 -4.9833174 1.0228068
54.858265 30.229527 2.8890185
11.221742 -4.9729271 1.0203985
55.154148 30.23148 2.8985577
11.189901 -4.9819002 1.0195358
55.513603 30.274916 2.9109144
11.134532 -4.9808292 1.0177386
55.838543 30.276745 2.9332132
11.098008 -4.9879355 1.0166962
56.128666 30.270885 2.9425106
11.054345 -4.9897103 1.0153303
56.429779 30.276615 2.9523892
10.973732 -4.9734201 1.0124547
56.829468 30.315262 2.9660816
10.945785 -4.9848347 1.0117718
57.199986 30.349344 2.9787569
10.893821 -4.9811325 1.0100465
57.238831 30.206112 2.9774494
10.862415 -4.9924407 1.0092556
58.284489 30.592667 3.0184898
10.824692 -4.9988213 1.0100628
58.718964 30.647827 3.0336709
10.763623 -4.9890909 1.0079311
59.117271 30.695204 3.0475445
10.721002 -4.9921546 1.0066303
59.622566 30.783964 3.0656676
10.647403 -4.9765472 1.0039928
59.62244 30.600183 3.0624352
10.614224 -4.9826021 1.0030533
60.059841 30.663219 3.0779071
10.557902 -4.9778013 1.0011744
60.525654 30.717693 3.0941782
10.529318 -4.9873643 1.0004518
60.952526 30.763525 3.1090326
10.466207 -4.9747114 0.99821162
61.033035 30.633768 3.0967398
10.435061 -4.984508 0.99741673
61.254173 30.555376 3.1026654
10.389087 -4.9829044 0.99593532
61.808655 30.662138 3.1227183
10.352767 -4.9859939 0.99485141
62.173435 30.676064 3.1349669
10.317533 -4.9927845 0.99387586
62.582195 30.688864 3.1486611
10.245224 -4.9740791 0.99123824
63.010784 30.724161 3.1634026
10.242077 -4.9974494 0.99159956
63.123108 30.605534 3.1651368
10.193861 -4.9955263 0.98559129
64.078468 30.886185 3.2014132
66.073936 31.883677 3.2840104
10.144052 -4.9902315 0.98395079
63.808796 30.567465 3.1872134
65.672935 31.493729 3.2642822
10.077049 -4.9736824 0.9815613
65.470802 31.204851 3.2528286
10.060587 -4.9903088 0.98138297
65.83918 31.190142 3.2648244
10.003117 -4.9803839 0.9794215
66.160515 31.15069 3.274869
9.9638748 -4.9799151 0.9782089
66.829964 31.293715 3.2994747
9.9314203 -4.9868116 0.97735298
67.27861 31.303898 3.3284345
9.8901463 -4.9856949 0.97606909
68.089264 31.500444 3.3587966
9.8526545 -4.9858394 0.97492784
68.799484 31.652691 3.3850918
9.812149 -4.986907 0.97371531
68.80703 31.44552 3.382041
9.780756 -4.9917922 0.97285932
69.604652 31.625565 3.4117498
71.598198 32.56213 3.493721
9.729599 -4.9822526 0.97111177
70.521622 31.865057 3.446434
9.6746769 -4.9729757 0.9692573
71.006615 31.875298 3.4629593
9.6547203 -4.9850588 0.96890068
71.399162 31.856468 3.475925
9.6182899 -4.9848332 0.96779507
71.809357 31.851948 3.4897261
9.5853033 -4.9898591 0.96690345
72.250366 31.835304 3.5043988
9.5279036 -4.9768906 0.96490628
72.796303 31.871973 3.5234661
9.5169678 -4.9927239 0.96490628
73.84552 32.156536 3.563417
9.4744511 -4.9906507 0.96358669
74.185104 32.085873 3.5738769
9.4348669 -4.9893899 0.96237415
74.381676 31.958492 3.5786347
9.4018726 -4.9905391 0.96141124
74.351883 31.747236 3.5593338
9.3568039 -4.985023 0.95994902
74.886696 31.767143 3.5777607
9.3245325 -4.9883585 0.95905745
75.186668 31.682285 3.5866852
9.3003883 -4.995337 0.9584868
75.752968 31.727772 3.6065941
9.2478657 -4.98487 0.9567036
75.892197 31.562248 3.6089063
9.2058887 -4.9797039 0.95534837
75.975647 31.389311 3.6092315
78.139442 32.310966 3.6963086
9.1905212 -4.9926195 0.95517004
76.998466 31.622221 3.647459
9.1438055 -4.9856572 0.95121527
76.709328 31.273109 3.6325727
78.999062 32.23521 3.7245278
9.1098576 -4.9857926 0.95022452
79.146294 32.080708 3.7273459
82.610008 33.526329 3.8663082
9.0850677 -4.9915137 0.94962299
79.867096 32.172283 3.7532887
83.005096 33.473495 3.8790631
9.0141506 -4.9659762 0.94700468
80.357048 32.13903 3.7695837
82.792702 33.141624 3.8671031
9.0155993 -4.991859 0.94760621
80.44825 31.957851 3.7701621
82.852882 32.940945 3.8663445
8.9861784 -4.9937596 0.94679236
80.341583 31.704973 3.7629719
88.95195 35.202068 4.1070538
8.9506741 -4.9939346 0.94576621
83.797592 32.863247 3.8976707
89.06263 34.985779 4.1078486
8.8931084 -4.9762659 0.94371402
84.048622 32.727909 3.9044275
89.059807 34.733597 4.1042719
8.8817005 -4.9913268 0.94371402
84.900826 32.848801 3.9353924
8.8437014 -4.9880729 0.94254637
86.156097 33.106159 3.9821105
91.839508 35.34935 4.2083311
8.8142767 -4.9911952 0.94176793
85.626793 32.657536 3.9577937
92.039948 35.170296 4.2128115
8.7788734 -4.9876037 0.94067109
86.28643 32.693386 3.9810266
92.154236 34.976902 4.214148
8.7425699 -4.9851031 0.93957424
88.111801 33.157806 4.0502548
91.743118 34.560558 4.1943841
8.7109375 -4.9860506 0.93868959
91.815269 34.332363 4.1938419
8.6863747 -4.9904151 0.94040525
91.855659 34.111813 4.1923246
8.6581621 -4.9947529 0.9396919
91.770142 33.814445 4.1854596
8.6202049 -4.9892983 0.93847936
92.237381 33.74498 4.2007432
96.717392 35.425419 4.3778968
8.5843143 -4.9843063 0.93733811
93.048172 33.811234 4.2297211
96.33403 35.03513 4.3595419
8.5531549 -4.9858327 0.93648219
94.625595 34.127014 4.2885432
96.154297 34.691921 4.3488832
8.5374432 -4.9976511 0.93630385
95.763435 34.293213 4.3302031
8.4910393 -4.9837151 0.9346633
94.473915 33.579895 4.2762947
96.666397 34.378399 4.3626857
8.4637794 -4.9879394 0.93398571
95.910667 33.829082 4.3007932
8.4329519 -4.9871893 0.93309414
99.588806 34.8946 4.441186
8.406414 -4.9888296 0.93238086
99.85817 34.738167 4.4485712
102.5097 35.682026 4.5519652
8.379981 -4.9933496 0.93173885
99.297096 34.25592 4.4232244
102.77375 35.483364 4.5586696
8.3547935 -4.9978127 0.93113261
100.24975 34.31802 4.456996
102.7338 35.188065 4.5536861
8.2982979 -4.9742155 0.92899275
101.4751 34.491322 4.5015945
8.2911882 -4.9934258 0.92924243
100.61597 33.918293 4.4648833
103.33666 34.856602 4.5706077
8.256402 -4.9894533 0.92669201
103.32806 34.572205 4.566915
8.2412338 -4.9999037 0.92651463
103.2733 34.294258 4.561717
8.2030258 -4.9937024 0.92530835
103.84076 34.194153 4.5802875
8.1717854 -4.9912825 0.92438596
107.5435 35.160141 4.7205367
108.9838 35.641167 4.7763209
8.1469975 -4.9932618 0.92374742
107.64907 34.926273 4.7215047
109.08307 35.401527 4.7770019
8.1045246 -4.9828138 0.92232835
107.90874 34.709305 4.7280655
109.26885 35.15617 4.7806587
8.0867195 -4.9915056 0.92204452
109.697 35.011971 4.7939596
8.031805 -4.9669557 0.91995138
110.53661 35.01041 4.8014464
8.0234051 -4.9855189 0.92016423
110.98739 34.845791 4.8152838
7.9865575 -4.9772401 0.91895807
111.01938 34.569023 4.8133221
113.77887 35.446136 4.919137
7.9795418 -4.9940863 0.91917086
7.946938 -4.99119 0.91821301
114.26278 34.998341 4.9310842
7.9104905 -4.9837294 0.91704226
7.8888836 -4.9874201 0.91654563
117.97781 35.55167 5.0667496
7.8612576 -4.9875298 0.91580057
116.86168 34.896595 5.0207434
7.8365617 -4.990149 0.91519749
117.98811 34.924828 5.0604372
7.7940516 -4.9745736 0.91367197
118.13168 34.677666 5.0628624
119.78746 35.173187 5.1260228
7.7668042 -4.9755139 0.91296244
119.82566 34.853516 5.1240258
7.7426958 -4.9772902 0.91235936
7.7377477 -4.9956546 0.91267866
7.7019491 -4.9883881 0.91154337
124.70799 35.333 5.3368721
7.6736045 -4.9859309 0.91072744
7.6564732 -4.9928546 0.91044366
7.6187034 -4.9832063 0.90920192
7.5982895 -4.9877996 0.90877622
7.5762362 -4.9898081 0.90824407
131.99597 35.75843 5.599483
7.5548916 -4.9952598 0.90781832
7.5254002 -4.9909139 0.90486687
7.4832501 -4.9742212 0.90335345
7.4821215 -4.9978781 0.9039166
7.4515171 -4.9929876 0.90300149
139.76443 36.076851 5.8788443
143.96883 37.179829 6.0389414
7.4240155 -4.989048 0.902192
144.25795 36.906876 6.0467052
7.3886433 -4.9791403 0.90103054
144.50728 36.593601 6.0527081
7.3797536 -4.995132 0.90120649
144.9413 36.326504 6.0657558
7.3606806 -4.9991541 0.9008193
145.23894 36.052364 6.0031643
7.3256636 -4.990088 0.89969307
145.57886 35.743977 6.012424
7.3027143 -4.990972 0.89912993
145.51814 35.36454 6.0069604
7.2637486 -4.9746933 0.89772213
145.8029 35.084816 6.0145879
7.2296433 -4.9659104 0.896631
146.46994 34.852703 6.0361576
7.2438068 -5.0040364 0.89796847
7.200232 -4.9825439 0.89631426
7.1887136 -4.9964657 0.89771593
7.1591144 -4.9898586 0.89679599
7.1327629 -4.985487 0.89601755
7.1077366 -4.9852047 0.89538062
7.0933352 -4.9949527 0.89527446
7.069778 -4.9931474 0.89463758
7.0473146 -4.9942875 0.89410681
7.0148358 -4.9846931 0.89304531
6.9967365 -4.9883137 0.89269149
6.957243 -4.9718041 0.89127618
6.9520149 -4.9900031 0.89162999
6.9233561 -4.9819641 0.89071006
6.9098496 -4.9930887 0.89067465
6.8926597 -4.9982634 0.89039159
6.8674355 -4.9936047 0.8883599
6.8447304 -4.9944544 0.88783199
6.8230038 -4.9943619 0.88730407
6.7998242 -4.9915862 0.88667053
6.7746034 -4.9892783 0.88600183
6.7641611 -5.002501 0.88610739
6.7357168 -4.9925036 0.88515711
6.7080159 -4.98701 0.88434756
6.6879206 -4.9890666 0.88392526
6.6617403 -4.9821315 0.88311571
6.6468139 -4.9899344 0.88297498
6.6293259 -4.9947386 0.88269341
6.6026206 -4.9868212 0.88184869
6.5840583 -4.9911551 0.88153189
6.5715556 -5.0006166 0.87961853
6.5361414 -4.9820251 0.87829179
6.5270677 -4.997345 0.8785013
6.5038586 -4.9938951 0.87787277
6.4705415 -4.9772229 0.87665075
6.4602013 -4.9908986 0.8767904
6.446425 -4.9984965 0.87668568
6.4225812 -4.9928455 0.87598735
6.4053869 -4.9981017 0.87574297
6.3548083 -4.9612656 0.87357819
6.3704524 -5.0038667 0.87511444
6.3298779 -4.9789248 0.87350833
6.3169079 -4.9880881 0.87347347
6.2987866 -4.9888272 0.87308937
6.2853189 -4.9982882 0.8730545
6.2504158 -4.9786115 0.87172771
6.2420225 -4.9914293 0.87190223
6.2303562 -5.0030465 0.87197208
183.34753 21.892485 7.2562838
6.2058368 -4.996171 0.87123889
6.1728907 -4.9772596 0.86998188
6.173749 -5.0049491 0.870785
178.27075 19.979691 7.0314059
6.13451 -4.9784746 0.86917889
