# .PCD v0.7 - Point Cloud Data file format
VERSION 0.7
FIELDS x y z
SIZE 4 4 4
TYPE F F F
COUNT 1 1 1
WIDTH 1514
HEIGHT 1
VIEWPOINT 0 0 0 1 0 0 0
POINTS 1514
DATA ascii
2.1697366 -5.0187697 1.0087278
-6.116806 -5.9912872 1.2601271
-19.812492 -16.270658 2.1902759
2.1545119 -4.9853001 1.0067604
-6.1456966 -5.9819808 1.2610805
-19.958588 -16.29353 2.1973736
2.1426811 -4.9896989 1.0069243
-6.1954117 -5.9903212 1.2635169
-20.024368 -16.262337 2.1992273
2.1334634 -5.0084834 1.007908
-6.2117262 -5.9748564 1.2637287
2.1242752 -5.024292 1.0087278
-6.2744322 -5.9900398 1.2669597
-20.253223 -16.267675 2.2093971
2.1079962 -4.990654 1.0099424
-6.3007503 -5.980536 1.2678072
-20.345062 -16.254576 2.2129986
2.1015673 -5.0355315 1.0124311
-6.3556876 -5.9929285 1.2706144
-20.466171 -16.265615 2.2186661
2.0896707 -5.0280166 1.0119333
-6.3871021 -5.9845138 1.2717267
-20.595215 -16.27211 2.2245455
2.0783076 -5.0380688 1.0124311
-6.4269228 -5.9843378 1.2734747
-20.717409 -16.279459 2.23016
2.0659914 -5.0305429 1.0119333
-6.4709945 -5.9881797 1.2755404
-20.820795 -16.275963 2.2346091
2.0526884 -5.0083899 1.0106061
-6.5202379 -5.9920049 1.2892418
-20.902857 -16.247051 2.2691104
2.0404458 -5.0096202 1.0106061
-6.5520115 -5.9843378 1.2904317
-21.065132 -16.277962 2.2774401
2.0286543 -5.010776 1.0106061
-6.6076417 -5.9968743 1.2933525
-22.98748 -17.560291 2.4055758
2.0182207 -5.0117731 1.0106061
-6.6687651 -6.0082951 1.2964897
-23.140732 -17.572973 2.4129319
2.0059705 -5.0129147 1.0106061
-6.7286491 -6.0196695 1.2995727
-23.182224 -17.510311 2.4128237
1.9910463 -4.9790239 1.0086151
-6.7531042 -6.0084491 1.3003299
-23.284321 -17.496813 2.4170427
1.9820075 -5.0003753 1.0097766
-6.8203592 -6.0243845 1.3038998
-23.449944 -17.519745 2.4253182
1.9685143 -4.9809828 1.0086151
-6.8435545 -6.0096359 1.3044947
-23.594139 -17.527039 2.4321334
1.959674 -5.0170698 1.0083275
-6.9074736 -6.0250487 1.3079023
-23.322386 -17.256109 2.411201
1.9501673 -5.0354462 1.0093145
-6.9610786 -6.0295243 1.3104986
-23.217175 -17.090252 2.4011946
1.9392049 -5.0539103 1.0103017
-6.9563246 -5.996592 1.3092545
-23.554604 -17.232038 2.4210992
1.9244925 -5.0110245 1.007834
-7.0107603 -6.004837 1.3120131
-23.558018 -17.150312 2.4187193
1.9148717 -5.0293298 1.008821
-7.1131115 -6.0413218 1.3178546
-23.717522 -17.162916 2.4264541
1.9019655 -5.02145 1.0083275
-7.122901 -6.0178928 1.3175843
-23.759598 -17.103443 2.4265623
1.8904029 -5.019311 1.008163
-7.1729403 -6.0223742 1.3150145
-23.829041 -17.065598 2.41398
1.8804457 -5.0346274 1.0089855
-7.2456417 -6.037941 1.3188215
-23.997028 -17.08202 2.422184
1.867954 -5.0324931 1.008821
-7.3092165 -6.0495176 1.3220925
-24.122086 -17.07641 2.4277606
1.8539312 -4.9893942 1.0063534
-7.3208952 -6.0281057 1.3219852
-24.257084 -17.080231 2.434088
1.8434309 -4.9958725 1.0066824
-7.3603497 -6.0211067 1.3235939
-24.388893 -17.070751 2.4398792
1.8315443 -5.0024033 1.0070114
-7.4492531 -6.0470505 1.3284733
-24.551167 -17.083824 2.4477613
1.8191558 -4.9913535 1.0063534
-7.4518919 -6.0195312 1.3277763
-24.68008 -17.081728 2.4536598
1.8089025 -5.0035973 1.0070114
-7.5114355 -6.0259962 1.3307254
-24.831245 -17.086147 2.4607913
1.796571 -4.9925647 1.0049964
-7.5488424 -6.0180845 1.3322269
-24.966133 -17.07946 2.4668505
1.786545 -5.0310998 1.0071241
-7.6008234 -6.0216675 1.3347471
-25.11359 -17.087212 2.4739285
1.7747312 -5.0111256 1.0059783
-7.6927795 -6.0476637 1.3397875
-28.465374 -19.100613 2.6888957
1.7626995 -5.0057735 1.0056511
-7.7262115 -6.0365481 1.3410207
-28.628029 -19.098135 2.6964028
1.7509186 -5.0062361 1.0056511
-7.7635069 -6.0301714 1.3425758
-28.816223 -19.118793 2.7057865
1.7400427 -5.0066376 1.0056511
-7.8704939 -6.0630112 1.3485277
-28.911404 -19.068895 2.7087891
1.7274184 -4.9953647 1.0049964
-7.8976307 -6.0486116 1.3504462
-29.160591 -19.121418 2.7254336
1.7161152 -4.9957261 1.0049964
-7.9475374 -6.0492964 1.3528097
-29.329529 -19.127583 2.7335446
1.7055964 -5.0077429 1.0056511
-8.0191612 -6.0592031 1.3564624
-29.405773 -19.064365 2.7353172
1.6941888 -5.0402408 1.0074514
-8.0255375 -6.0317631 1.355979
1.6820235 -5.0083551 1.0056511
-8.0212612 -5.9992113 1.3548509
1.6709573 -4.999824 1.0051601
-8.0109959 -5.9594603 1.3532395
1.6589015 -5.008841 1.0056511
-8.079113 -5.9689879 1.3567309
-30.792351 -19.481356 2.8126125
1.6475666 -5.009038 1.0056511
-8.1988096 -6.0099392 1.3635527
-30.661964 -19.303646 2.8014398
1.6366861 -5.0093021 1.0038371
-8.2767076 -6.0218248 1.3675814
-30.709484 -19.219265 2.8013325
1.6248386 -5.0445566 1.0057877
-8.3449211 -6.0288801 1.371019
-30.766758 -19.144756 2.8019769
1.6126525 -5.0095749 1.0038371
-8.3505964 -6.0017357 1.3705356
-28.802612 -17.902271 2.6740289
1.6017692 -5.0096579 1.0038371
-8.4450731 -6.0234847 1.3756385
-27.900372 -17.279232 2.6138146
1.5899787 -5.0097198 1.0038371
-8.4797096 -6.0102787 1.3769276
-31.176552 -19.065996 2.8193269
1.5782149 -5.0273032 1.0048125
-8.5013905 -5.9920807 1.3774648
-30.718716 -18.704023 2.7875278
1.5673046 -5.0097561 1.0038371
-8.5647879 -5.9937286 1.3749613
-31.645346 -19.120388 2.8248827
1.5550606 -5.0097303 1.0038371
-8.5615406 -5.9599247 1.3738964
-31.806749 -19.106594 2.8321776
1.5437913 -4.9979782 1.0031869
-8.6094866 -5.9562969 1.3760794
-31.986023 -19.106337 2.8406971
1.5328405 -5.009603 1.0038371
-8.6191063 -5.9271841 1.37576
1.520597 -5.0094881 1.0038371
-8.6855135 -5.9322267 1.3790612
1.5092604 -5.0093532 1.0038371
-8.7232981 -5.9223986 1.3806055
1.498378 -5.0091987 1.0038371
-8.7832279 -5.9207382 1.3834276
-32.057747 -18.712486 2.8336685
1.4861355 -5.0089946 1.0038371
-8.8806353 -5.9418354 1.3886458
-32.268745 -18.723124 2.8440516
1.4742649 -5.0350981 1.0053
-8.954524 -5.9509335 1.3924263
-32.432812 -18.711433 2.8516128
1.464185 -4.9968457 1.0031869
-9.044735 -5.9645638 1.3971121
-27.926483 -16.163605 2.5689766
1.4514577 -5.0170231 1.0043248
-9.1382828 -5.9821148 1.4020641
-32.896378 -18.741669 2.8746688
1.4403455 -5.0079508 1.0038371
-9.2190733 -5.9923625 1.4062173
-33.100582 -18.744537 2.8845727
1.4282224 -5.0339379 1.0053
-9.2824383 -5.9916172 1.4092524
-33.34639 -18.764231 2.8969262
1.4172285 -5.0072546 1.0038371
-9.3458662 -5.9905891 1.4122875
-35.707207 -19.898495 3.0398417
1.4054449 -5.006856 1.0038371
-9.4147587 -5.994792 1.4240412
1.3934767 -5.0356941 1.0054626
-9.4537907 -5.9790702 1.4255505
-35.548103 -19.583408 3.0523009
1.3813994 -5.0293727 1.0051374
-9.5704994 -6.0061293 1.4319646
-35.699074 -19.548782 3.0588229
1.3700163 -5.0289049 1.0051374
-9.6261749 -6.0024691 1.4346058
-35.897652 -19.542587 3.0684175
1.3593497 -5.0225849 1.0048125
-9.7035046 -6.0055799 1.4384868
-36.121033 -19.534538 3.0791976
1.3462451 -5.0395522 1.0057877
-9.7302914 -5.985281 1.4392953
-36.357437 -19.541128 3.0910022
1.3354173 -5.0273137 1.0051374
-9.8234854 -5.9998798 1.4442543
-36.602676 -19.555634 3.1034534
1.3263206 -4.9916024 1.0049964
-9.8914585 -5.9972038 1.4475422
-36.848507 -19.555447 3.1155813
1.3115752 -5.0376854 1.0076151
-9.973218 -6.00383 1.4517466
-41.07399 -21.552898 3.3738778
1.3008373 -5.0253687 1.0069604
-10.062381 -6.0151138 1.456436
-39.711002 -20.752991 3.2867188
1.2914753 -4.9984546 1.0054874
-10.142824 -6.017477 1.4604787
-41.640984 -21.573185 3.4024458
1.2798038 -4.9889565 1.0049964
-10.211749 -6.0165582 1.4638745
-41.940544 -21.591681 3.4177537
1.2651405 -5.0407882 1.0079424
-10.293879 -6.0217571 1.4680789
-42.101974 -21.541309 3.4245453
1.2548976 -5.0225296 1.0069604
-10.350959 -6.0129938 1.4580108
-39.950447 -20.363701 3.2447908
1.2446909 -4.9983811 1.0056511
-10.497931 -6.0472746 1.4660087
-40.226219 -20.369015 3.2584033
1.2312565 -5.0208941 1.0069604
-10.629955 -6.0764523 1.4731593
1.2181902 -5.0492706 1.0085971
-10.670846 -6.0587006 1.4747483
-38.849941 -19.46806 3.1698427
1.2083099 -5.0221272 1.0071241
-10.718777 -6.0441155 1.476761
-41.061928 -20.390612 3.2998762
1.1948771 -5.0416203 1.0082698
-10.80002 -6.0478621 1.4808395
-41.370255 -20.415749 3.3156073
1.185818 -5.0174179 1.0069604
-10.891848 -6.0518179 1.4854475
-41.553074 -20.365688 3.3234463
1.1735554 -5.0164051 1.0069604
-10.94286 -6.0392728 1.4876721
-43.524208 -21.154526 3.438596
1.1621945 -5.0155401 1.0051374
-11.024323 -6.0420065 1.4917506
-43.812157 -21.16147 3.45295
1.1543987 -4.9796214 1.0031869
-11.051674 -6.0151815 1.4924922
1.1401072 -5.0018311 1.0044873
-11.077871 -5.9906702 1.4932337
1.1287901 -5.0007854 1.0044873
-11.09548 -5.9636612 1.4934986
-44.792221 -21.205505 3.502368
1.1159718 -5.0201373 1.0056251
-11.255205 -5.9960995 1.5021321
1.1045632 -5.01021 1.0051374
-11.340168 -5.997242 1.5063694
-45.409 -21.203255 3.532877
1.09058 -5.0352716 1.0066004
-11.416769 -5.9957504 1.5074149
1.0799401 -5.0312433 1.0064379
-11.481564 -5.9842377 1.5103706
-47.729858 -21.950924 3.6542318
1.0664086 -5.0415916 1.0070881
-11.491339 -5.9498396 1.5101068
-52.318565 -23.812071 3.9221418
1.0558021 -5.028687 1.0064379
-11.540181 -5.9354229 1.5122179
1.0474546 -5.0042295 1.0051374
-11.630398 -5.9356909 1.5167042
1.0346909 -5.0116291 1.0056251
-11.745789 -5.9463058 1.5226684
-53.295361 -23.765018 3.9696436
1.0212135 -5.0248065 1.0064379
-11.831514 -5.9467144 1.5269434
-53.610363 -23.750048 3.9850025
1.0102968 -5.0235281 1.0064379
-12.09497 -6.0173626 1.5415635
0.99801564 -5.0220866 1.0059799
-12.338882 -6.0814133 1.555075
-54.335423 -23.73065 4.0207348
0.98665094 -5.020699 1.0059799
-12.42334 -6.0791755 1.5592446
-54.602554 -23.691092 4.0332432
0.97574377 -5.0193415 1.0059799
-12.510438 -6.0729175 1.563467
-56.750214 -24.410885 4.1555343
0.9634769 -5.0177851 1.0059799
-12.602793 -6.0715528 1.568059
-56.96846 -24.337212 4.1649289
0.95212245 -5.016315 1.0059799
-12.663073 -6.0582218 1.5708034
-57.421738 -24.36536 4.1882048
0.94122505 -5.0148783 1.0059799
-12.797312 -6.069891 1.5777704
-57.811928 -24.345835 4.2073636
0.9289701 -5.0132318 1.0059799
-12.892229 -6.0682077 1.5899734
-58.140167 -24.312677 4.2540913
0.91282463 -5.0464516 1.0079272
-12.992467 -6.0698228 1.5950851
-58.511276 -24.301861 4.2726746
0.90674043 -5.0101633 1.0059799
-13.050968 -6.0495095 1.597641
-59.004654 -24.317833 4.2980199
0.89118266 -5.0315933 1.0072781
-13.183632 -6.0614548 1.6046164
-61.062981 -24.96253 4.4154835
0.88485003 -4.995214 1.0053308
-13.244162 -6.0461006 1.6073854
-61.444668 -24.945879 4.434546
0.87400174 -4.9936228 1.0053308
-13.365428 -6.0492177 1.6136153
-61.846424 -24.914333 4.4543538
0.86180258 -4.9918017 1.0053308
-13.407114 -6.0226183 1.6152127
-62.280636 -24.900341 4.4761853
0.84474707 -5.0247173 1.0072781
-13.517764 -6.0256104 1.6209102
-62.650364 -24.873598 4.4945021
0.83381534 -5.0231342 1.0054371
-13.59498 -6.0120311 1.6245842
-63.080605 -24.854067 4.5160675
0.82199383 -5.0212812 1.0054371
-13.693205 -6.0060315 1.629483
-65.405678 -25.548508 4.6482267
0.81017685 -5.0193996 1.0054371
-13.829647 -6.0172477 1.6366713
-65.803314 -25.521879 4.668035
0.79833269 -5.0234103 1.0057595
-13.929499 -6.0091186 1.6416233
-66.216667 -25.477137 4.6883221
0.78892255 -5.0040784 1.0047926
-13.972515 -5.9828739 1.6433272
0.77033043 -5.0454621 1.0072098
-14.014949 -5.9579458 1.6450311
0.76084113 -5.034956 1.0067263
-14.086879 -5.9385247 1.6403672
0.75451994 -4.9982538 1.0047926
-14.229769 -5.9478092 1.6478091
-68.127701 -25.42342 4.7496762
0.73714423 -5.030858 1.0067263
-14.252924 -5.9151607 1.6483897
-68.471802 -25.365816 4.7661433
0.72621417 -5.0289264 1.0067263
-14.341942 -5.900774 1.6526649
-69.909126 -25.67292 4.8449965
0.71392322 -5.0267234 1.0067263
-14.51358 -5.9185696 1.6617429
0.70202136 -5.0275326 1.0068874
-14.618595 -5.9139032 1.667021
-73.830154 -26.669945 5.0630822
0.69643235 -4.9967585 1.005276
-14.915039 -5.9700708 1.6831715
-74.415001 -26.654423 5.0926919
0.67935824 -5.0203519 1.0067263
-15.067513 -5.9767532 1.6910884
-74.975616 -26.635748 5.1210346
0.66755342 -5.018064 1.0076512
-15.201497 -5.9799199 1.6980027
-75.448509 -26.600798 5.1446271
0.65887141 -5.0044832 1.0070045
-15.326523 -5.975822 1.7043362
-75.974709 -26.565262 5.1709642
0.64485002 -5.0136781 1.0076512
-15.396182 -5.9524641 1.7075031
-78.565765 -27.222437 5.3152113
0.63305259 -5.0113544 1.0076512
-15.560925 -5.9641924 1.7161589
0.61756396 -5.0321283 1.0089449
-15.659885 -5.947845 1.7209618
0.60468268 -5.0325103 1.0091066
-15.830608 -5.9582686 1.7369412
-16.961714 -6.3299727 1.801842
0.5915246 -5.0387759 1.0095917
-16.01334 -5.9736342 1.7466683
-80.855743 -27.116919 5.4643989
0.59011793 -4.9906893 1.0070045
-16.170977 -5.9743958 1.754854
-83.157417 -27.625109 5.5922871
0.57068181 -5.022481 1.0089449
-16.304424 -5.9703588 1.7617109
-83.72142 -27.581909 5.6208305
0.55931664 -5.0200691 1.0089449
-16.470856 -5.978075 1.7704811
-84.264503 -27.538467 5.6483111
0.54841208 -5.0177288 1.0089449
-16.629765 -5.9769015 1.7787201
-84.86216 -27.4825 5.6784492
0.53864932 -5.0036345 1.008298
-16.746738 -5.9656563 1.78462
-85.40184 -27.423717 5.7055573
0.51912117 -5.0382776 1.0104003
-16.959146 -5.9853878 1.795995
0.50882435 -5.032939 1.0111724
-17.030779 -5.9549804 1.7992375
0.49652362 -5.0301733 1.0111724
-17.132074 -5.937192 1.8042338
-87.297073 -27.307243 5.8024035
0.48514056 -5.0275846 1.0111724
-17.302467 -5.9398065 1.8131638
-89.588959 -27.766815 5.9292283
0.48035455 -4.9964685 1.0095497
-17.509958 -5.9507165 1.8241665
-90.267288 -27.722126 5.9639378
0.4619391 -5.0222178 1.0111724
-17.468941 -5.8868895 1.8210304
0.45281386 -5.0080519 1.0105233
-17.592241 -5.8756227 1.8273025
0.43174005 -5.0481429 1.0129573
-17.760271 -5.8708243 1.8360198
-94.208725 -28.133194 6.1763401
0.41940022 -5.0451775 1.0129573
-18.020075 -5.8956933 1.8499992
-94.760559 -28.043709 6.2038736
0.40798163 -5.0424037 1.0129573
-18.320816 -5.9330487 1.8663173
-95.403625 -27.98785 6.2367225
0.40473151 -5.0084739 1.0111724
-18.600956 -5.9568772 1.8813598
-96.122437 -27.920254 6.2733989
0.38683224 -5.0281448 1.0124705
-18.81172 -5.963963 1.8925221
-98.844398 -28.431725 6.4237704
0.37545443 -5.0252924 1.0124705
-19.007992 -5.968123 1.9028871
-99.41626 -28.341858 6.4524736
0.36742282 -5.0111895 1.0118215
-19.236115 -5.9737315 1.914953
-100.19652 -28.275459 6.4924984
0.34570813 -5.0448871 1.0139309
-19.495293 -5.9909506 1.9288261
-100.90967 -28.207928 6.5290151
0.33794117 -5.0278802 1.0112383
-19.660927 -5.9838004 1.9374371
-101.4613 -28.104008 6.5565486
0.32998633 -5.0137119 1.0105938
-19.994072 -6.0141478 1.9554031
0.31174278 -5.0331049 1.0118829
-20.220835 -6.0190134 1.9674158
0.30262136 -5.021595 1.0113995
-20.21801 -5.9647465 1.9665122
-105.98955 -28.489452 6.8004708
0.28942657 -5.0271368 1.0118829
-20.604565 -6.005064 1.9874547
-106.53415 -28.333664 6.8270478
0.2709837 -5.04638 1.0131721
-20.761433 -5.9865532 1.995481
-107.54442 -28.306122 6.8799891
0.2653203 -5.0205626 1.0118829
-20.861961 -5.9575176 1.9915109
-108.16281 -28.196236 6.8676224
0.24814892 -5.0400934 1.0131721
-20.969719 -5.9252872 1.996736
0.23628688 -5.0367808 1.0131721
-21.195724 -5.9220572 2.0085588
0.22443318 -5.0334387 1.0131721
-21.48987 -5.9392014 2.0242343
-110.58347 -27.944572 6.9913907
0.22314405 -4.9965754 1.0112383
-21.787746 -5.9487848 2.0400155
-116.36313 -29.048512 7.3094416
0.20526123 -5.0127444 1.0123663
-22.044926 -5.9517651 2.05358
0.18737864 -5.0319266 1.0136555
-22.277046 -5.9499302 2.0657721
0.16902947 -5.0539904 1.0151058
-22.626688 -5.9675264 2.0844033
-118.26463 -28.589657 7.4037066
0.16252613 -5.030612 1.0158782
-23.018208 -5.9980516 2.1054096
0.14611363 -5.0440373 1.0168517
-23.236557 -5.9890776 2.1168101
0.13262105 -5.0491476 1.0173385
-23.410065 -5.9612865 2.1256244
0.12539101 -5.0286183 1.0163649
-24.161709 -6.0685444 2.1665814
-122.23879 -28.267044 7.6093364
0.11401296 -5.0251389 1.0163649
-24.31109 -6.0398912 2.174129
-122.20205 -27.959606 7.6037416
0.095312357 -5.0469232 1.0178254
-24.139368 -5.9317083 2.163784
0.094316721 -5.0067897 1.0157158
-24.388201 -5.9190273 2.1869938
0.071987152 -5.0365729 1.017663
-24.806641 -5.9496822 2.2096372
0.062387228 -5.0304675 1.0175008
-25.29524 -5.9827147 2.2360547
0.053665161 -5.0154037 1.0168517
-25.640514 -5.9856873 2.254499
0.037367344 -5.0255237 1.017663
-25.956226 -5.9862709 2.2713487
-125.54026 -26.756001 7.8165045
0.031887293 -5.0052938 1.0166894
-26.289425 -5.9834461 2.2891021
0.023764133 -4.9903259 1.0160403
-26.330376 -5.9195309 2.2905903
-121.51988 -25.278034 7.5856047
0.0037484169 -5.011446 1.0175008
-26.847147 -5.9566698 2.3186023
-0.015529156 -5.0329747 1.0155983
-27.148762 -5.9400997 2.3345485
-0.027827978 -5.0288515 1.0155983
-27.239822 -5.8865271 2.3388538
-0.039206266 -5.0250058 1.0155983
-27.578213 -5.883275 2.3569262
-0.057692051 -5.0434318 1.0168808
-28.40111 -5.9620972 2.401788
-0.070017576 -5.0391994 1.0168808
-28.762564 -5.9558277 2.4210827
-0.087182045 -5.0518317 1.0178425
-29.181133 -5.9614859 2.4435668
-0.080760002 -4.9983053 1.0149571
-29.333282 -5.9071579 2.445152
-0.10075831 -5.0160813 1.0162394
-29.731541 -5.902709 2.4663916
-0.1248498 -5.0478907 1.0183234
-30.298359 -5.9295454 2.4969535
-0.1387763 -5.052237 1.0188043
-3.4466767 -14.285105 1.5562453
-30.780668 -5.9293051 2.5227482
-0.14317465 -5.025785 1.0175219
-31.274174 -5.9317436 2.5491786
-0.16200423 -5.0407391 1.018644
-31.690865 -5.9251766 2.5714247
-0.1699338 -5.0284991 1.0181631
-31.942417 -5.8822956 2.5845075
-0.19288945 -5.0542526 1.0213904
-32.257454 -5.8487082 2.6010859
-0.21397114 -5.0745139 1.0228407
-33.205681 -5.9236507 2.6525698
-0.2085681 -5.0265684 1.0202625
-33.820057 -5.9300394 2.6855679
-0.23325801 -5.0547829 1.0221962
-34.394119 -5.9339333 2.7163947
-0.24365735 -5.0477104 1.022035
-34.949547 -5.9357595 2.7462149
-0.25567007 -5.0462537 1.0221962
-35.431622 -5.9128895 2.7719038
-0.27643371 -5.0633392 1.0234853
-36.199516 -5.9379549 2.7876668
-0.27728963 -5.0316348 1.0218738
-36.772934 -5.9342451 2.8180602
-0.29568553 -5.0464354 1.0230019
-37.011383 -5.867692 2.8301966
-0.3198297 -5.0715189 1.0247744
-38.164764 -5.9385729 2.8919775
-0.34103227 -5.0914402 1.0262247
-38.481907 -5.8900738 2.9084558
-0.35970449 -5.106039 1.0273528
-39.76083 -5.9612713 2.9769328
-0.37219143 -5.1010246 1.0273528
-4.045495 -14.214508 1.5686352
-40.448441 -5.9497204 3.0133944
-0.36549783 -5.0500884 1.0246133
-3.9617441 -13.908643 1.5512853
-41.335247 -5.9696369 3.0606847
-0.39270926 -5.085361 1.026479
-4.0115614 -13.941079 1.5525562
-41.758366 -5.9162788 3.0828128
-0.39354873 -5.0533991 1.0248704
-4.0237026 -13.87392 1.5493925
-42.536461 -5.9063797 3.1241395
-0.45024419 -5.1565814 1.031305
-4.0919194 -13.942802 1.5543257
-43.904846 -5.9756775 3.1974289
-0.45245004 -5.1303191 1.0300181
-4.1071997 -13.89104 1.55202
-44.596989 -5.9415913 3.2340477
-0.45819974 -5.1088834 1.0290529
-4.1333485 -13.854721 1.5507331
-45.720909 -5.9652443 3.29405
-0.448874 -5.0546136 1.0261037
-4.1727076 -13.857174 1.5516982
-46.543495 -5.9524784 3.3377829
-0.5343399 -5.2248998 1.0365598
-4.2062259 -13.849305 1.55202
-47.599869 -5.948782 3.403554
-0.54136944 -5.2059908 1.0357555
-4.2401795 -13.831616 1.5518591
-47.884678 -5.8618031 3.4182537
-0.48515725 -5.0433502 1.0263182
-4.281146 -13.837344 1.5530388
-49.512108 -5.927578 3.5057175
-0.64762688 -5.3874035 1.0472305
-4.3224273 -13.847095 1.5544329
-50.593018 -5.9111862 3.5634668
-0.5213213 -5.0627189 1.0280876
-4.3676887 -13.855021 1.5558271
-51.466564 -5.8775139 3.6100338
-0.9261241 -5.9509888 1.0817624
-4.3919573 -13.822006 1.5547011
-52.459 -5.8572311 3.663058
-0.9399569 -5.947011 1.0818697
-4.4377174 -13.841237 1.556685
-53.468742 -5.8181763 3.7169223
-0.95024824 -5.9306965 1.0812799
-4.4728017 -13.825636 1.556685
-54.461086 -5.7830391 3.7698939
-4.5144391 -13.831571 1.5579183
-55.431686 -5.7465782 3.8217108
-0.98519874 -5.9374499 1.0824059
-4.5435982 -13.813089 1.5576502
-56.843796 -5.7302742 3.8973098
-1.0123529 -5.9583282 1.0840682
-4.5939536 -13.830942 1.5596879
-58.278969 -5.7145634 3.9741688
-4.6386762 -13.839469 1.5611355
-59.63567 -5.6965504 4.0468278
-1.0370963 -5.9405651 1.0837464
-4.6551704 -13.793262 1.5592053
-61.383221 -5.6940269 4.1405392
-1.0585835 -5.9499683 1.0847116
-4.7101693 -13.823699 1.5619935
-62.685101 -5.6453705 4.2101531
-1.0801334 -5.9592996 1.0856768
-4.7608218 -13.844226 1.5641921
-64.016228 -5.6052876 4.2813945
-1.0832474 -5.9320016 1.0843899
-4.7824831 -13.80932 1.5629587
-65.89341 -5.5828953 4.3820357
-1.108706 -5.9480319 1.085784
-4.8295708 -13.818394 1.5645137
-67.020241 -5.5066547 4.4422002
-4.8829465 -13.84704 1.5671947
-68.834137 -5.4828262 4.5394812
-1.1508778 -5.9679241 1.0877681
-4.9090958 -13.821598 1.5665513
-1.1545905 -5.9380188 1.0863738
-4.9627481 -13.843431 1.5689106
-72.70195 -5.3982792 4.7468534
-5.0024691 -13.842648 1.5698222
-75.004936 -5.3809586 4.8704891
-1.1986613 -5.9610872 1.0885723
-5.0417781 -13.844139 1.5708411
-1.2275637 -5.9828463 1.0891237
-5.0863895 -13.846377 1.569123
-78.08857 -5.1889572 5.0354948
-1.2274116 -5.9481421 1.0874138
-5.1370173 -13.867104 1.5713673
-81.011215 -5.1794777 5.1925201
-1.2426155 -5.9460545 1.0876809
-5.7584982 -15.040264 1.6440911
-84.056335 -5.1388969 5.3560553
-1.2686079 -5.9614296 1.0890703
-5.8119407 -15.051769 1.6459613
-1.2932768 -5.9752417 1.0903527
-5.8610077 -15.057714 1.6474575
-87.023605 -4.8824997 5.5148129
-182.9216 -9.894783 10.684733
-1.293171 -5.9425316 1.0887496
-5.8791475 -15.009249 1.6455338
-87.036812 -4.6618462 5.5149183
-178.83211 -9.2302628 10.463029
-1.3223152 -5.964921 1.0905664
-5.9534349 -15.064498 1.6500757
-1.3467 -5.977653 1.0917954
-5.9849315 -15.035279 1.6494346
-89.799171 -4.3605499 5.6451221
-1.3736427 -5.9977984 1.0934519
-1.932937 -7.0423636 1.1583744
-92.928734 -4.0295105 5.8121033
-1.3903933 -5.9605651 1.0920626
-92.9245 -3.8116837 5.8114228
-1.4116064 -5.9692817 1.0930244
-92.910004 -3.5663605 5.8101673
-188.27179 -6.9109116 10.928979
-1.4440683 -5.9951763 1.0951083
-1.4554734 -5.9836268 1.0948411
-96.240494 -3.2233734 5.9881339
-1.556723 -6.1418247 1.1051005
-96.17572 -2.9682884 5.9842629
-1.5446731 -6.0830212 1.1019479
-96.214104 -2.7349243 5.9859891
-1.5178024 -6.0000324 1.0972457
-98.789398 -2.5693207 6.1238847
-1.6170337 -6.1514425 1.107131
-101.95586 -2.3743896 6.2934809
-1.5298401 -5.9557662 1.0954289
-1.5396791 -5.9414802 1.0950015
-189.91606 -3.2768555 11.049026
-1.6059798 -6.0307555 1.1010395
-1.6094866 -6.0020571 1.0997571
-1.6442022 -6.0307088 1.1020548
-1.6411811 -5.9943948 1.100238
-193.2579 -1.4058456 11.227839
-1.6558962 -5.9872189 1.1002915
-1.7062657 -6.0427284 1.1042991
-194.83215 -0.47387695 11.312415
-1.6977383 -5.9970794 1.1018945
-1.7154443 -5.9936705 1.1022151
-1.7418233 -6.0077229 1.1036043
-1.736369 -5.9680519 1.1015738
-1.7865298 -6.0200734 1.1054211
-1.8037392 -6.0178924 1.1057951
-1.8124671 -6.0025578 1.1053143
-1.8556806 -6.0415502 1.1083601
-1.8499635 -6.0006824 1.106276
-1.8580945 -5.9844375 1.1057417
-1.9071583 -6.0322828 1.1093752
-1.9240201 -6.027761 1.1096424
-1.606977 -5.9801722 1.0779849
-1.6725968 -6.0643048 1.0834227
-1.6638336 -6.015667 1.0810058
-1.665695 -5.9878597 1.0797975
-1.8683302 -6.3148088 1.0996349
-1.7009417 -5.9837685 1.0805024
-1.7021004 -5.955111 1.0792437
-1.7897565 -6.0746827 1.0868464
-1.7605436 -5.991406 1.0823653
-1.9280585 -6.2517138 1.0983258
-1.8105618 -6.0132341 1.084631
-1.8602667 -6.0655632 1.0882561
4.2944002 -5.0078316 1.0284563
-2.0102034 -6.2908363 1.1022028
4.2849674 -5.0166245 1.0286105
-1.8370858 -5.9627166 1.0830702
4.260119 -5.000495 1.0272232
-1.8473601 -5.9476576 1.0813984
4.2483444 -5.0071831 1.0272232
-1.9228481 -6.04461 1.0876687
4.2202282 -4.9827423 1.0253737
-1.9062413 -5.9829578 1.0845084
4.2137623 -4.9997959 1.0259902
-1.9305323 -5.9922547 1.0855618
4.2024422 -5.0061159 1.0259902
-1.9043156 -5.9192171 1.0816492
4.180222 -4.9916821 1.0247571
-1.9027308 -5.8836641 1.080044
4.1623735 -4.9881687 1.0241406
-1.9391377 -5.9128523 1.0823013
4.158102 -5.0071983 1.0249113
-1.9501034 -5.9015398 1.0821006
4.1500154 -5.0182776 1.0252196
-1.9493061 -5.8676457 1.0805957
4.1335649 -5.0172181 1.0247571
-1.9905854 -5.904006 1.0833045
4.1055737 -4.9924264 1.0229075
-2.0511732 -5.9719567 1.0879194
4.0974827 -5.0034051 1.0232158
-2.1963573 -6.1698494 1.10051
4.0879927 -5.0150957 1.023524
-2.1239915 -6.0229259 1.092133
4.065248 -5.0006609 1.0222911
-2.2502751 -6.19344 1.103018
4.0561929 -5.008739 1.0224452
-2.1389542 -5.9855833 1.0922337
4.0480065 -5.0229359 1.0229075
-2.147954 -5.968225 1.0917301
4.024044 -5.0057254 1.0215204
-2.3686285 -6.2808218 1.1114669
4.0091391 -5.0035582 1.021058
-2.2210093 -6.0208678 1.0960602
3.9813323 -4.9783831 1.0192084
-2.2844546 -6.0866156 1.1006923
3.9696124 -4.984376 1.0192084
-2.3883443 -6.2155948 1.1092012
3.964072 -5.0003209 1.019825
-2.257565 -5.9840913 1.0955063
3.9518442 -5.0064993 1.019825
-2.3985956 -6.1667519 1.1073887
3.9405198 -5.0122166 1.0193175
-2.2963498 -5.984097 1.096614
3.9296253 -5.0176558 1.0193175
-2.3372526 -6.0130534 1.0990307
3.9173524 -5.0237455 1.0193175
-2.4552057 -6.1582055 1.1086473
3.895649 -5.0083508 1.0180867
-2.3571501 -5.9843421 1.0983763
3.8847628 -5.0136871 1.0180867
-2.4604061 -6.104012 1.1064824
3.8571661 -4.9880781 1.0162405
-2.4303176 -6.0300746 1.1024544
3.8624053 -5.0277977 1.0182406
-2.4590836 -6.0434461 1.1038642
3.8426156 -5.0145926 1.0171636
-2.4640632 -6.0186749 1.102958
-7.886776 -13.851044 1.5947657
3.8127298 -4.9834824 1.0150096
-2.437748 -5.9502759 1.0992825
-7.9100542 -13.812327 1.593809
3.8060064 -4.9996324 1.0156251
-2.4687316 -5.9667115 1.1008937
-7.9730887 -13.836131 1.596679
3.7951407 -5.0047622 1.0156251
-2.5025928 -5.9846559 1.1026559
-8.0063543 -13.81161 1.5966285
3.7982273 -5.0420933 1.0174713
-2.5275609 -5.9897246 1.1036125
-8.077837 -13.841161 1.6000019
3.7715564 -5.0157914 1.0156251
-2.5424418 -5.9827657 1.1037636
-8.1311016 -13.850033 1.6019655
3.7508397 -4.9995928 1.0143943
-2.5391178 -5.9468174 1.1021523
-8.1571941 -13.812289 1.60116
3.753274 -5.037179 1.0152369
-2.5766377 -5.9703293 1.104267
-8.2175322 -13.82786 1.6036271
3.7309442 -5.0184364 1.0138572
-2.5909207 -5.9624543 1.1043677
-8.2595787 -13.820429 1.6045837
3.716413 -5.015398 1.0133975
-2.6154175 -5.9651961 1.1052237
-8.3393278 -13.856627 1.608511
3.6945448 -4.9995909 1.012171
-2.640584 -5.9710126 1.1062306
-8.3782225 -13.84161 1.6090648
3.6832259 -5.0046673 1.012171
-2.6704407 -5.9842248 1.1076908
-8.4284792 -13.844747 1.6107262
3.6723487 -5.0095148 1.012171
-2.684185 -5.9718823 1.1048669
-8.4892712 -13.85375 1.6064644
3.645927 -4.9828167 1.0103316
-2.6972971 -5.9609885 1.1048169
-8.538085 -13.851652 1.6078637
3.6393461 -4.9984951 1.0109447
-2.7389376 -5.9895992 1.1072657
-8.5961199 -13.864454 1.6101625
3.6238103 -4.9925122 1.0103316
-2.7292387 -5.9457335 1.1051667
-8.6278133 -13.833519 1.6098628
3.6185718 -5.0139217 1.0112513
-2.7457566 -5.9382248 1.1053666
-8.7020664 -13.861957 1.6133111
3.6090741 -5.0243874 1.0115579
-2.7788095 -5.9548383 1.1070658
-8.7509832 -13.861729 1.6148102
3.5935569 -5.018301 1.0109447
-2.7912369 -5.9417572 1.1069158
-8.7842808 -13.835289 1.6147603
3.5817387 -5.0233278 1.0109447
-2.795934 -5.918571 1.1061163
-10.324533 -15.783453 1.7419963
3.5744281 -5.0390625 1.0125481
-2.8463442 -5.9573669 1.1092646
-10.391094 -15.796385 1.7445948
3.5634723 -5.0436602 1.0125481
-2.8462062 -5.9267178 1.1080153
-10.487856 -15.83886 1.7493424
3.5421586 -5.0271854 1.0113173
-2.8938365 -5.9601645 1.1108639
-10.562806 -15.858588 1.752491
3.5307751 -5.0318961 1.0113173
-2.9027605 -5.9445906 1.110514
-10.613059 -15.8492 1.7536902
3.506525 -5.0039053 1.0094711
-2.9030495 -5.9146719 1.1093147
-10.700871 -15.878397 1.7576385
3.4810638 -4.9763784 1.0076249
-2.9395146 -5.9331679 1.1112137
-10.744917 -15.857476 1.758188
3.4829493 -5.0134964 1.0094711
-2.9459186 -5.9144583 1.1106639
-10.800137 -15.853683 1.7597873
3.4742298 -5.023313 1.0097787
-2.9781489 -5.9250073 1.1121132
-10.537752 -15.440668 1.7348498
3.4467921 -4.990171 1.0076249
-2.9990296 -5.9233389 1.1127129
-10.477367 -15.290521 1.7269038
3.4441035 -5.016418 1.0088556
-3.024267 -5.9281254 1.1137124
-10.507052 -15.256775 1.7265041
3.4385476 -5.0343313 1.0096248
-3.0511832 -5.9315085 1.1147119
-10.619312 -15.316675 1.732501
3.4283586 -5.0446005 1.0099325
-3.0505824 -5.9018955 1.1135125
-10.629801 -15.253015 1.7303021
3.409085 -5.0301166 1.0088556
-3.1042814 -5.9424605 1.1168609
-10.613583 -15.165666 1.7263041
3.3818111 -4.9904642 1.006394
-3.1029296 -5.910831 1.1155615
-10.628668 -15.105511 1.7244051
3.3832009 -5.0307674 1.0064441
-3.1566696 -5.9474754 1.1187599
-10.86764 -15.320697 1.7406969
3.36203 -5.010644 1.0050695
-3.1641653 -5.9299178 1.1183101
-10.944527 -15.343257 1.7440951
3.3501101 -5.0120144 1.0049168
-3.2019806 -5.9467134 1.1202092
-10.972129 -15.300117 1.7432957
3.3403537 -5.0219159 1.0052222
-3.2005286 -5.916193 1.1189598
-10.492033 -14.649045 1.7019165
3.3193851 -5.0016184 1.0038476
-3.2216926 -5.9150138 1.1196095
-10.596579 -14.706532 1.7076135
3.3085151 -5.0056286 1.0038476
-3.2407312 -5.9079213 1.1199592
-11.106752 -15.235771 1.7451947
3.294271 -5.0046129 1.0035422
-3.289695 -5.9382844 1.1191864
-11.159328 -15.22516 1.7370874
3.2869248 -5.0197334 1.0041531
-3.3084512 -5.9338698 1.119632
-11.201328 -15.20484 1.7376814
3.277993 -5.0291758 1.0044585
-3.3649917 -5.9702396 1.1228995
-11.263451 -15.199257 1.7395132
3.2539043 -5.0005083 1.0026258
-3.3615079 -5.9385324 1.1215628
-11.329124 -15.203315 1.7418401
3.2425838 -5.004528 1.0026258
-3.3847761 -5.9390774 1.122355
-11.359024 -15.168528 1.7414935
3.2307386 -5.0056019 1.0024731
-3.4173827 -5.9469614 1.1237411
-11.423809 -15.165309 1.7435234
3.2194622 -5.0126448 1.0026258
-3.4284477 -5.9321551 1.1235431
-11.480033 -15.15774 1.7451077
3.2167149 -5.0414691 1.0040004
-3.4652903 -5.9478712 1.1253749
-11.523936 -15.138773 1.7458501
3.1981435 -5.023056 1.0037401
-3.4787219 -5.933466 1.1252759
-11.401844 -14.922753 1.7335229
3.1773796 -5.0023232 1.0023605
-3.5154982 -5.9465227 1.1270087
-11.410561 -14.859087 1.7313941
3.1712141 -5.0229454 1.0032802
-3.5149665 -5.9196057 1.1259689
-11.459692 -14.846766 1.7325822
3.1547232 -5.0099692 1.0023605
-3.5654843 -5.9477291 1.1287414
-11.466118 -14.780909 1.730305
3.1429274 -5.0139017 1.0023605
-3.6161733 -5.975636 1.1315138
-11.537498 -14.787643 1.7329783
3.1201417 -4.9844584 1.0005209
-3.6371686 -5.9724722 1.1321079
-11.551292 -14.73583 1.731493
3.1183982 -5.0158205 1.0020539
-3.6676922 -5.9775248 1.1363096
-11.652641 -14.77512 1.7439642
3.1011777 -5.0029635 1.0011342
-3.6641965 -5.9451046 1.1349628
-11.684196 -14.737178 1.7436152
3.0867152 -4.9984059 1.0006742
-3.6884787 -5.9453678 1.1358109
-11.724075 -14.713932 1.7441139
3.0785182 -5.0102434 1.0011342
-3.7329288 -5.9641285 1.1380556
-11.756836 -14.674562 1.7437646
3.0662682 -5.0141306 1.0011342
-3.7605119 -5.9665356 1.1391031
-11.833098 -14.687774 1.7469072
3.0584137 -5.0288677 1.0017474
-3.7709851 -5.9514966 1.1389035
-11.86561 -14.65628 1.7468574
3.0457463 -5.0266895 1.0014408
-3.807693 -5.9612756 1.1405495
-11.930152 -14.650776 1.7489026
3.0317321 -5.0248985 1.0011342
-3.8066673 -5.9328337 1.1394522
-11.99333 -14.649046 1.7510474
3.0237918 -5.0396504 1.0003159
-3.8638954 -5.9673634 1.1427443
-12.073269 -14.667553 1.754539
3.002665 -5.0093775 0.99848652
-3.8712833 -5.9456062 1.1421957
-12.127985 -14.6507 1.755836
2.9870558 -5.0018578 0.99787676
-3.8956747 -5.9439468 1.1429938
-12.200804 -14.65817 1.7586792
2.9790678 -5.0164557 0.99848652
-3.9222417 -5.9455438 1.1439914
-12.251448 -14.644863 1.7599761
2.9582391 -4.9860067 0.99665713
-3.9383087 -5.9328246 1.1440911
-12.315704 -14.637255 1.7619715
2.9542511 -5.0176663 0.99818164
-3.9776421 -5.9452324 1.1429005
-12.390436 -14.642944 1.7571378
2.9375589 -5.0042362 0.99726695
-4.0002375 -5.9423437 1.1435935
-12.446615 -14.634664 1.758821
2.9266844 -5.0073681 0.99726695
-4.0409751 -5.9557619 1.1455244
-12.5308 -14.64933 1.762336
2.914896 -5.0107327 0.99726695
-4.059269 -5.9460421 1.1458213
-12.611727 -14.660181 1.7656035
2.9030983 -5.0140676 0.99726695
-4.0894699 -5.9505353 1.1470591
-12.655109 -14.638031 1.7663462
2.8922012 -5.0171199 0.99726695
-4.1090021 -5.9408269 1.1474056
-12.737608 -14.646993 1.7696137
2.8830488 -5.031805 0.99787676
-4.1487679 -5.9535627 1.1492869
-12.821614 -14.662515 1.7731783
2.8546741 -4.9728498 0.99452287
-4.1749725 -5.953588 1.1502275
-12.883012 -14.657732 1.775208
2.8515196 -5.0040064 0.99651664
-4.2152958 -5.9642549 1.1520593
-12.98249 -14.682274 1.7796638
2.8400438 -5.0101309 0.99666941
-4.2469893 -5.9683123 1.1533465
-13.046145 -14.676271 1.781743
2.8189359 -4.9763999 0.99468386
-4.2670693 -5.9618559 1.1538416
-13.095968 -14.65913 1.7829311
2.8140833 -5.001893 0.99590576
-4.2658038 -5.931138 1.1527029
-13.177091 -14.664233 1.7860501
2.8048055 -5.0164199 0.99651664
-4.277997 -5.9158754 1.1526039
-13.254876 -14.67117 1.7891195
2.7956405 -5.0278625 0.99697483
-4.3455915 -5.9554939 1.1564655
-13.331396 -14.67924 1.7921891
2.7767467 -4.999486 0.99529481
-4.3350749 -5.9158812 1.1546832
-13.405869 -14.67664 1.7948129
2.7645254 -5.0025911 0.99529481
-4.3969879 -5.9472065 1.1580497
-13.477636 -14.673837 1.7973378
2.7527492 -5.0055513 0.99529481
-4.3882241 -5.9126606 1.156515
-13.52769 -14.655456 1.798526
2.7418723 -5.0082583 0.99529481
-4.4150267 -5.9100018 1.1574061
-13.618645 -14.670332 1.8023875
2.7300818 -5.0111618 0.99529481
-4.4560151 -5.9206581 1.1592875
-13.699145 -14.674786 1.8055065
2.7182841 -5.0140362 0.99529481
-4.4697475 -5.9075451 1.1593369
-13.790479 -14.694573 1.809566
2.7019279 -4.9939032 0.99407297
-4.5085487 -5.9146881 1.1610202
-13.847727 -14.673558 1.8109524
2.6836448 -4.9711943 0.99269843
-4.5156813 -5.8942161 1.1605746
-13.921457 -14.673265 1.8136752
2.6784117 -4.9994822 0.99407297
-4.570085 -5.9188004 1.1634459
2.6649022 -4.9906182 0.99346209
-4.5990529 -5.9162383 1.1644361
2.6553211 -5.0048399 0.99407297
-4.6097345 -5.8988981 1.1642381
2.6439924 -5.0074253 0.99407297
-4.6521993 -5.9117661 1.1662679
2.6388803 -5.0355735 0.99544752
-4.6862917 -5.9134841 1.1676047
-15.671347 -15.919105 1.9218488
2.6208637 -5.0126147 0.99407297
-4.7272978 -5.9234667 1.1694859
-15.794835 -15.955788 1.9277401
2.613277 -5.0322642 0.99498934
-4.7417736 -5.910367 1.1695849
-15.94026 -16.014545 1.9352157
2.5998588 -5.0232124 0.99437845
-4.7803454 -5.9156199 1.1712186
-16.04269 -16.024652 1.9394238
2.5863507 -5.0201383 0.99407297
-4.806263 -5.9115334 1.1720603
-16.151722 -16.046171 1.9442756
2.5731678 -5.0139713 0.99361479
-4.8832202 -5.9527121 1.1763674
-15.787887 -15.646707 1.916997
2.5660114 -5.0364056 0.99468386
-4.8952127 -5.9347763 1.1762189
2.5446811 -4.9930277 0.99224019
-4.9093533 -5.9187517 1.1762189
2.5352681 -5.0069065 0.99285114
-4.9399767 -5.9193501 1.177407
2.5243888 -5.0091128 0.99285114
-4.9731941 -5.9198742 1.1786942
2.5126014 -5.0114975 0.99238861
-5.010138 -5.9234619 1.1802289
-16.926704 -16.258018 1.980911
2.5013671 -5.0167012 0.99254107
-5.1508889 -6.0186596 1.1887938
-17.037308 -16.279245 1.9858618
2.4882364 -5.00734 0.9919312
-5.1865063 -6.0191455 1.1901799
-17.123867 -16.269897 1.9888816
2.4781947 -5.021193 0.99254107
-5.2151337 -6.0157099 1.1911701
-16.904913 -16.005283 1.9717026
2.4684563 -5.0319781 0.99299836
-5.267005 -6.033041 1.1937444
-17.063686 -16.067093 1.9798713
2.4489388 -4.9880118 0.99055922
-5.3012981 -6.0318146 1.1950316
-17.458218 -16.318159 2.0033872
2.4388633 -5.0017786 0.99116898
-5.3284221 -6.0266266 1.1993597
-17.612675 -16.370295 2.0207059
2.4275429 -5.0038452 0.99116898
-5.3506556 -6.0183544 1.1999583
-17.754353 -16.413914 2.0276892
2.4104877 -4.9712434 0.98933959
-5.3812847 -6.0136471 1.2010057
-17.957176 -16.498222 2.0384138
2.4044342 -5.0079765 0.99116898
-5.431098 -6.0269637 1.2034001
-18.262516 -16.672546 2.0561216
2.3930988 -5.0099602 0.99116898
-5.4571466 -6.0214963 1.2042481
-18.38522 -16.69714 2.0617583
2.3762808 -4.9772353 0.98933959
-5.4856176 -6.0145407 1.205146
-18.3305 -16.565681 2.0553236
2.3641191 -4.9793034 0.98933959
-5.492403 -5.990871 1.2046471
-18.033537 -16.240257 2.0330267
2.3586366 -5.0187855 0.99132144
-5.5101237 -5.9783964 1.2049464
-18.664192 -16.678322 2.0721834
2.3434811 -4.9946475 0.98903328
-5.5736485 -6.0007181 1.2081887
-18.82637 -16.726109 2.0801644
2.3373153 -5.0312195 0.99085593
-5.5925083 -5.98667 1.208488
-18.90155 -16.702847 2.0824091
2.3236341 -5.0215559 0.99024838
-5.6384048 -5.9964991 1.2106328
-18.971306 -16.681414 2.0845041
2.3140779 -5.0319471 0.99070406
-5.6944275 -6.0107598 1.2133265
-19.141884 -16.730429 2.0928843
2.2968845 -5.0020447 0.98903328
-5.7143173 -5.9982843 1.2137256
-19.213406 -16.706299 2.0949793
2.2855639 -5.0037708 0.98903328
-5.7206249 -5.9761686 1.2132766
-19.275703 -16.677874 2.0965755
2.2798629 -5.0401287 0.99085593
-5.7662716 -5.9816217 1.2108266
-16.91853 -14.739535 1.9292541
2.2624574 -5.0072083 0.98903328
-5.8168669 -5.9929514 1.2131984
-17.917664 -15.448956 1.9912684
2.25279 -5.0204353 0.98964083
-5.8531485 -5.9940004 1.2146809
-18.015705 -15.453274 1.9953203
2.2402406 -5.0104036 0.98903328
-5.8965244 -5.9969578 1.2165091
-18.133667 -15.463505 2.0003605
2.2279928 -5.0121198 0.98903328
-5.9628215 -6.0196028 1.2198694
-18.255856 -15.482374 2.0058455
2.2166481 -5.0136809 0.98903328
-5.9861326 -6.0100646 1.2205117
-18.323359 -15.461726 2.007921
2.205754 -5.0151539 0.98903328
-6.0428972 -6.0225177 1.2231801
-18.448765 -15.475905 2.0134058
2.1946373 -5.0254836 0.98948896
-6.0580292 -6.00422 1.2232294
-18.551933 -15.475558 2.0175567
2.1816835 -5.0183177 0.98903328
-6.06602 -5.9839573 1.2229329
-18.627491 -15.462969 2.020225
2.168293 -4.9964318 0.98781818
-6.0956469 -5.9754057 1.2238718
-18.744017 -15.468706 2.0251169
2.1589615 -5.0211902 0.98903328
-6.1669331 -5.9989834 1.227479
-20.632465 -16.7999 2.1421287
2.1471407 -5.0226412 0.98903328
-6.1989193 -5.9952264 1.228665
-20.7425 -16.802387 2.1466749
2.1334572 -5.0007119 0.98781818
-6.2445784 -5.9991417 1.2306415
-20.840935 -16.789148 2.1502821
2.1216877 -5.0020995 0.98781818
-6.2816219 -5.996479 1.2330039
-20.978615 -16.804329 2.1590383
2.1095824 -5.0005503 0.98766625
-6.3113422 -5.9905925 1.2340435
-21.069368 -16.791092 2.1623554
2.0990438 -5.0046844 0.98781818
-6.3261652 -5.9702835 1.2340435
-21.175184 -16.778461 2.1663158
2.0868115 -5.0060353 0.98781818
-6.3975067 -5.9932051 1.2376575
-21.275547 -16.768047 2.1701279
2.0717564 -4.9723473 0.98599553
-6.431262 -5.9897823 1.2389446
-21.346718 -16.739487 2.1722074
2.0646024 -5.0084062 0.98781818
-6.4944372 -6.0038228 1.2419646
-21.446388 -16.72113 2.1757717
2.0523598 -5.0096674 0.98781818
-6.5494871 -6.0140276 1.244539
-21.5247 -16.693768 2.1781976
2.0410221 -5.010808 0.98781818
-6.5635138 -5.9959946 1.2445885
-21.254662 -16.422237 2.1590383
2.0335312 -5.0468922 0.98826325
-6.6245651 -6.0076509 1.2474599
-21.32592 -16.38402 2.1608701
2.0189898 -5.0247707 0.98705488
-6.6766434 -6.0150003 1.2498362
-21.434752 -16.378521 2.1652267
2.0097594 -5.0491381 0.98826325
-6.701869 -6.004488 1.2505789
-21.43182 -16.29771 2.1627514
1.9956486 -5.0151658 0.98645067
-6.7864051 -6.0315919 1.254886
-21.581396 -16.313366 2.1694348
1.9849117 -5.0337377 0.98735696
-6.8055944 -6.0141788 1.2551831
-21.687943 -16.301744 2.1735439
1.9715813 -5.0172625 0.98645067
-6.8308792 -6.0032816 1.2559257
-21.757751 -16.270947 2.1755738
1.9597203 -5.0065069 0.98584652
-6.89996 -6.0199084 1.2583132
-21.950657 -16.317575 2.1822529
1.9470067 -4.9957952 0.98524237
-6.9578466 -6.0285153 1.2609816
-22.045454 -16.296314 2.1856129
1.9343488 -4.9850492 0.98463815
-6.9791856 -6.0144453 1.2614758
-22.179211 -16.307657 2.1915426
1.9243953 -4.9975433 0.98524237
-7.017529 -6.0082054 1.2629087
-22.263563 -16.27511 2.1941617
1.9121817 -4.9984422 0.98524237
-7.0750518 -6.0170236 1.2655771
-22.380493 -16.270699 2.1989548
1.9008706 -4.9992456 0.98524237
-7.1450949 -6.0350823 1.2690361
-22.534143 -16.293545 2.2060702
1.8915887 -5.0233455 0.98645067
-7.1884823 -6.0314751 1.2707655
-22.669067 -16.293179 2.2117529
1.8783594 -5.0095606 0.98569548
-7.2194042 -6.0218449 1.2718033
-22.797005 -16.294199 2.2171884
1.8679281 -5.024766 0.98872983
-7.2897329 -6.0391574 1.2752621
-22.924362 -16.297579 2.2226734
1.8577129 -5.037118 0.98933959
-7.3169298 -6.0243092 1.2760034
-23.067099 -16.300314 2.2288008
1.8453972 -5.0378442 0.98933959
-7.3593693 -6.0216808 1.2777328
-25.075493 -17.519905 2.347789
1.8320551 -5.0034332 0.9875102
-7.4217758 -6.0329638 1.2806977
-25.292942 -17.573458 2.3585119
1.8224229 -5.0273938 0.98872983
-7.4596834 -6.0245337 1.2820814
-25.448479 -17.575115 2.3651829
1.8089556 -5.0046525 0.9875102
-7.5425329 -6.0470781 1.286232
-25.152094 -17.294636 2.3448737
1.7970695 -4.9935193 0.98690045
-7.5959053 -6.0504289 1.288604
-25.154169 -17.206059 2.3425512
1.7863029 -5.0057383 0.9875102
-7.6210442 -6.0344439 1.2892463
-25.814726 -17.53023 2.3796117
1.7745217 -5.0062599 0.9875102
-7.6932306 -6.047946 1.2927053
-25.917164 -17.499382 2.3831694
1.7627391 -5.006753 0.9875102
-7.7553301 -6.0572186 1.2956207
-26.053528 -17.496677 2.3889508
1.7518625 -5.0071812 0.9875102
-7.7976561 -6.0501633 1.2972513
-25.934891 -17.323799 2.3792164
1.739624 -5.0076337 0.9875102
-7.8911591 -6.077033 1.301995
-25.896914 -17.209198 2.374522
1.7284863 -5.0138717 0.98781514
-7.921978 -6.0660777 1.3030328
-25.919239 -17.135838 2.3735337
1.7174118 -5.0083728 0.9875102
-7.9785938 -6.06704 1.3055035
-26.04023 -17.112055 2.3781292
1.705338 -5.0146327 0.98690683
-8.0616617 -6.0863066 1.3096049
1.6946721 -5.0412636 0.98827386
-8.003293 -6.0208063 1.3053552
1.6837845 -5.0444603 0.98842573
-7.9830866 -5.9750013 1.3032799
1.6712043 -5.0330358 0.98781818
-8.0235538 -5.968214 1.3048611
1.6600292 -5.0449629 0.98842573
-8.0643339 -5.9626865 1.3064917
-26.897345 -17.171551 2.4168696
1.6479156 -4.974946 0.98478043
-8.2301683 -6.0272341 1.3153863
-26.964544 -17.11182 2.4182532
1.6367285 -5.0453405 0.98842573
-8.2870369 -6.02917 1.3135395
-29.373377 -18.437206 2.5437026
1.6249068 -5.0103774 0.98660308
-8.325551 -6.0213532 1.3150108
-29.571695 -18.457703 2.552824
1.6140213 -5.010489 0.98660308
-8.3682652 -6.0120173 1.3166289
-29.695425 -18.421776 2.5572865
1.6017754 -5.0105844 0.98660308
-8.4619446 -6.033246 1.3212388
-29.015427 -17.924341 2.5151615
1.5899825 -5.0106463 0.98660308
-8.4642248 -6.0039215 1.3206012
-29.939388 -18.362385 2.5664079
1.5791364 -5.0340834 0.98781818
-8.5217009 -6.0037022 1.3231022
-30.088558 -18.343468 2.5724399
1.5672991 -5.0165343 0.98690683
-8.5868683 -6.0075703 1.3260447
-29.949587 -18.159952 2.5617983
1.5555112 -5.0106583 0.98660308
-8.6544065 -6.0150232 1.3291832
-30.401554 -18.31995 2.5855336
1.5446255 -5.0106096 0.98660308
-8.6930876 -6.002037 1.3305564
-27.931892 -16.822048 2.4403758
1.5323794 -5.0105257 0.98660308
-8.7689762 -6.0122757 1.3341362
-30.098797 -17.941078 2.5629261
1.5211644 -4.9987168 0.98599553
-8.8052111 -6.0013704 1.3354603
-30.229757 -17.918516 2.5681243
1.5101554 -5.0102911 0.98660308
-8.8089571 -5.9684715 1.3348228
-30.41707 -17.914589 2.5762651
1.4980912 -4.9984169 0.98599553
-8.9482641 -6.0127501 1.3420316
-30.630245 -17.931946 2.5860729
1.4865725 -5.0099292 0.98660308
-8.9809151 -5.9992547 1.3489004
-30.838642 -17.949652 2.6134167
1.4755118 -5.0184975 0.98705876
-9.0403137 -5.9962482 1.3514748
-30.998316 -17.927742 2.6200011
1.463711 -4.9977598 0.98599553
-9.0935163 -5.992229 1.3537521
-31.158138 -17.913244 2.6267836
1.4521091 -5.0091877 0.98660308
-9.1479321 -5.9899349 1.3561285
-31.412613 -17.952934 2.6391108
1.441227 -5.0089016 0.98660308
-9.217804 -5.991684 1.359297
-31.611456 -17.949381 2.6479232
1.4289856 -5.0085492 0.98660308
-9.2932367 -5.9973478 1.362812
-34.090858 -19.159374 2.7878804
1.4171987 -5.0081806 0.98660308
-9.3486872 -5.9947448 1.365238
-34.241219 -19.133827 2.7940192
1.4050965 -5.0429015 0.98842573
-9.4070091 -5.9907255 1.3677628
-34.482491 -19.146559 2.8051584
1.394968 -4.9957643 0.98463815
-9.4186802 -5.9620996 1.3676143
-34.662651 -19.126184 2.8127825
1.3818154 -5.0303912 0.98645067
-9.4698811 -5.9566536 1.3697925
-34.185619 -18.773029 2.7830286
1.3723629 -4.9948654 0.98463815
-9.5019455 -5.9371023 1.3707826
1.3589811 -5.0206409 0.98599756
-9.5545959 -5.9306622 1.3730105
1.3472054 -5.0288863 0.98645067
-9.6380234 -5.9410033 1.3770206
1.3349781 -5.0546584 0.98781013
-9.7118816 -5.9420309 1.3803871
-35.036812 -18.758583 2.8211493
1.3252034 -5.0043602 0.98524237
-9.7921352 -5.9486084 1.3744316
-35.286358 -18.774174 2.8011274
1.3126075 -5.0271292 0.98645067
-9.8802261 -5.9600725 1.3786248
-35.502464 -18.776249 2.8108304
1.3016846 -5.0265222 0.98645067
-9.9499855 -5.9578714 1.3816967
-39.707825 -20.746485 3.0429246
1.2890513 -5.0316496 0.98675281
-10.103537 -5.9994612 1.3894981
-37.567146 -19.565935 2.9208314
1.278384 -5.0192795 0.9861486
-10.213902 -6.0204101 1.3949103
-40.300026 -20.796331 3.0705709
1.2671051 -5.0244331 0.98645067
-10.320829 -6.0349064 1.4000301
-40.561684 -20.78978 3.0821757
1.2548242 -5.0236301 0.98645067
-10.392571 -6.0345812 1.4032483
-39.975403 -20.380714 3.046874
1.2426481 -5.034534 0.98705488
-10.491062 -6.0482254 1.4079778
-41.164619 -20.836227 3.1103098
1.2325418 -5.0220919 0.98645067
-10.61422 -6.0689144 1.4139752
-41.712135 -20.96241 3.1377125
1.2181082 -5.0503778 0.98796117
-10.700893 -6.0729985 1.4179735
-41.742477 -20.844503 3.1365423
1.2084489 -5.0203109 0.98645067
-10.745991 -6.0598631 1.4197289
-43.581306 -21.592381 3.2356212
1.1975422 -5.019464 0.98645067
-10.8178 -6.0562177 1.4228983
-39.704521 -19.632866 3.0185449
1.1885738 -4.9835238 0.98463815
-10.915295 -6.0642185 1.4274817
-39.914425 -19.605545 3.027468
1.1739173 -5.0175424 0.98645067
-10.972866 -6.0561066 1.4299195
-38.852982 -18.996845 2.9665189
1.1630168 -5.0166163 0.98645067
-11.073641 -6.063282 1.4373097
-42.952354 -20.759815 3.1989353
1.1507561 -5.0155439 0.98645067
-11.057379 -6.0192528 1.4356456
1.1394064 -5.0145226 0.98645067
-11.084813 -5.996748 1.4364288
1.1263342 -5.0368218 0.9876591
-11.144958 -5.9845791 1.438925
-42.993942 -20.386963 3.1930618
1.1137416 -5.0385671 0.98781013
-11.394415 -6.0601206 1.4518957
-43.282272 -20.388119 3.2062771
1.1026237 -5.0345454 0.9876591
-11.355197 -6.0069122 1.449008
-43.660667 -20.433308 3.2245343
1.094033 -5.0101666 0.98645067
-11.499327 -6.0308752 1.4561052
-43.890182 -20.394947 3.2342744
1.0793805 -5.032198 0.9876591
-11.535448 -6.009469 1.4573288
-44.257851 -20.426815 3.2517972
1.0716836 -4.9961376 0.98493707
-11.725559 -6.0568547 1.4670202
-44.526619 -20.418816 3.2639849
1.0576847 -5.024065 0.98644197
-11.857708 -6.0734739 1.4734321
1.0434709 -5.0401688 0.98734486
-11.960818 -6.078371 1.4782778
1.0316064 -5.0388384 0.98734486
-12.006452 -6.0611649 1.4800398
-50.060143 -22.389288 3.5581031
1.0206575 -5.0375843 0.98734486
-12.18329 -6.0966177 1.4888992
1.0101731 -5.0245752 0.98674291
-12.231943 -6.076869 1.4907591
0.99834728 -5.0231624 0.98674291
-12.32892 -6.0803533 1.4953111
-52.669174 -23.042624 3.6914327
0.98743439 -5.021832 0.98674291
-12.460063 -6.0929341 1.5016252
-53.002499 -23.016851 3.7063613
0.97516108 -5.0203047 0.98674291
-12.476721 -6.060514 1.501772
-53.382149 -23.020947 3.724031
0.96380067 -5.0188627 0.98674291
-12.337635 -5.9654942 1.4935001
-53.658039 -22.986666 3.7361696
0.95176172 -5.0261569 0.98719442
-12.430914 -5.9617023 1.4977584
-54.056137 -22.982542 3.7545733
0.93754697 -5.0390396 0.98794681
-12.4807 -5.9429116 1.4997163
-54.350834 -22.946871 3.7675931
0.92614174 -5.0375066 0.98794681
-12.56159 -5.9380331 1.5033872
-56.400036 -23.623951 3.8756666
0.91479611 -5.0389085 0.98809731
-12.695774 -5.9494014 1.5098481
-56.784485 -23.603718 3.8931894
0.90288615 -5.034296 0.98794681
-12.849863 -5.9711576 1.5174348
-57.130302 -23.579218 3.9088521
0.89480495 -5.0095105 0.98674291
-13.110626 -6.0358801 1.5307972
-57.4487 -23.548813 3.9231443
0.88013649 -5.0340004 0.98809731
-13.274466 -6.0563455 1.5388243
-57.895638 -23.547707 3.9439955
0.86783266 -5.0321956 0.98809731
-13.379221 -6.056231 1.5437191
-58.265781 -23.527622 3.9609311
0.86036038 -5.0044575 0.98674291
-13.454948 -6.0443954 1.5470474
-58.629799 -23.503431 3.9775238
0.84550071 -5.0258784 0.98794681
-13.539454 -6.0339303 1.5508162
-59.105545 -23.513748 3.99999
0.83367229 -5.0240545 0.98794681
-13.621553 -6.0221486 1.5482221
-61.297443 -24.175116 4.0887442
0.81636953 -5.0568814 0.98975265
-13.757035 -6.0335026 1.5547307
-61.714504 -24.167448 4.1080275
0.80537939 -5.0551324 0.98975265
-13.848101 -6.0241737 1.5588107
-62.193069 -24.167028 4.1303225
