# .PCD v0.7 - Point Cloud Data file format
VERSION 0.7
FIELDS x y z
SIZE 4 4 4
TYPE F F F
COUNT 1 1 1
WIDTH 1519
HEIGHT 1
VIEWPOINT 0 0 0 1 0 0 0
POINTS 1519
DATA ascii
-2.2389073 -15.40189 2.2543042
-18.2906 -5.7705536 2.7312226
0.096418858 -6.0787997 1.321647
-2.2801499 -15.424539 2.257417
-18.488102 -5.7697458 2.7435896
0.09399581 -6.0260096 1.3167423
-18.686529 -5.7702484 2.7620609
0.069414377 -6.0618234 1.3207037
-19.325047 -5.892972 2.8246009
0.053156137 -6.0696359 1.3218358
-2.3928328 -15.399456 2.2577941
-19.538099 -5.8942747 2.8444786
0.053907394 -6.0085182 1.316082
-2.426528 -15.374495 2.256285
-19.783234 -5.9030185 2.8675444
0.040887833 -6.0000234 1.3156104
-2.4666543 -15.373873 2.2572284
-19.943783 -5.8927312 2.8822651
0.017849445 -6.0330849 1.319289
-2.5107479 -15.399263 2.2607181
-20.179398 -5.8945837 2.9042995
0.010378838 -6.0018506 1.3165536
-2.5562668 -15.412089 2.2630763
-20.408428 -5.8980074 2.9257712
0.013167143 -5.93817 1.3099544
-2.5946274 -15.409791 2.2623262
-20.638948 -5.9029713 2.9474304
0.0017123222 -5.9289513 1.309389
-20.887253 -5.9044991 2.9706836
-0.0094921589 -5.9127035 1.308164
-21.110104 -5.9030075 2.9914989
-0.022459269 -5.9070282 1.3079755
-21.339144 -5.9043016 3.0129707
-0.038606882 -5.9145622 1.3091063
-21.330084 -5.839324 3.0106266
-0.048338413 -5.8935657 1.3074102
-21.433165 -5.8062258 3.0195341
-0.070753574 -5.9204664 1.3105197
-3.2286563 -16.769793 2.4059312
-21.721405 -5.8193369 3.0422356
-0.096596718 -5.9605079 1.3149486
-3.2570033 -16.726063 2.4026332
-22.221947 -5.8741961 3.0903339
-0.12013507 -5.9859939 1.3179638
-2.9443564 -15.515038 2.2814548
-22.521725 -5.8818693 3.1185939
-24.309662 -6.3002625 3.2953601
-0.1343534 -5.98176 1.3179638
-2.9909539 -15.532604 2.2843759
-22.787458 -5.8850746 3.143579
-0.15532827 -6.0038776 1.3206022
-3.0364237 -15.556499 2.2878623
-23.040203 -5.879118 3.1671603
-0.17157245 -6.0060663 1.3212619
-3.435586 -16.731518 2.4080985
-23.327198 -5.8796644 3.1941104
-0.19810915 -6.0416594 1.3253137
-3.4868498 -16.752436 2.4114907
-23.596191 -5.8798094 3.2193761
-0.20101428 -6.0041461 1.3219213
-3.523304 -16.736113 2.4110196
-23.897306 -5.8781614 3.2476361
-0.20363665 -5.9605203 1.3185344
-3.5565624 -16.693027 2.4096527
-24.189903 -5.8782663 3.2751477
-0.22133636 -5.9692287 1.319855
-3.6052332 -16.710358 2.4126711
-24.319637 -5.8443537 3.2866576
-0.23942447 -5.9808388 1.3214583
-3.6492043 -16.717857 2.4146519
-24.327366 -5.7760067 3.2860026
-0.24646449 -5.9520664 1.319006
-3.6798754 -16.667265 2.4108789
-24.794209 -5.8097773 3.3306386
-0.27469683 -5.9930148 1.3236278
-3.7230225 -16.666655 2.4121051
-25.337902 -5.8599958 3.3828542
-0.28482842 -5.9795103 1.3226845
-3.7694416 -16.681234 2.4148405
-25.660797 -5.8539715 3.4131732
-0.29987979 -5.9756107 1.3227789
-3.810668 -16.66366 2.4144633
-25.948475 -5.8446074 3.4401231
-0.31383252 -5.9720325 1.3228732
-3.8645868 -16.695005 2.4189906
-26.304346 -5.8503561 3.4738107
-0.32815599 -5.9713688 1.3232505
-3.9004989 -16.676922 2.4184248
-26.618134 -5.8376865 3.5031939
-0.34536338 -5.973803 1.3240051
-3.940135 -16.654411 2.4175758
-26.929596 -5.8257885 3.5323896
-0.35767698 -5.9634857 1.3234391
-3.984683 -16.651669 2.4187078
-27.288782 -5.8272972 3.5663581
-0.3628881 -5.9360394 1.3210812
-4.0179377 -16.625965 2.4173872
-27.335049 -5.7616453 3.5695395
-0.38806796 -5.9633632 1.3243823
-4.0684862 -16.640471 2.4203112
-27.591331 -5.7353601 3.593308
-0.40478206 -5.965807 1.3251369
-4.0856419 -16.558418 2.4133313
-28.270947 -5.7923231 3.6586244
-0.4294219 -5.9942722 1.3285326
-4.1356091 -16.581141 2.4170098
-28.649479 -5.7819023 3.6942773
-0.438061 -5.9716597 1.3267405
-4.1379929 -16.453573 2.4054084
-29.05484 -5.7804289 3.7326436
-0.45267487 -5.9695749 1.3270234
-4.0907497 -16.198074 2.3805072
-29.353607 -5.7610703 3.760623
-0.46248293 -5.9557533 1.3260802
-4.1450653 -16.234415 2.3856006
-29.684662 -5.7367849 3.7915969
-0.47650862 -5.9486418 1.3258915
-4.2163944 -16.302757 2.3941839
-29.998466 -5.7140427 3.8209798
-0.49972963 -5.9702058 1.3286269
-4.256444 -16.293404 2.3946557
-30.400928 -5.708106 3.8590655
-0.50077605 -5.9325714 1.3252313
-4.2972898 -16.290905 2.3957875
-30.666023 -5.6676626 3.8740997
-0.53157115 -5.9709539 1.3297588
-4.3228846 -16.232809 2.3913543
-31.070187 -5.6553192 3.9121649
-0.54147649 -5.9558778 1.3287213
-4.3550029 -16.20224 2.3896565
-31.538239 -5.6547289 3.956481
-0.55760193 -5.9591932 1.3295701
-4.4032221 -16.219507 2.3928635
-31.894749 -5.6241693 3.9897881
-0.57950974 -5.9727583 1.3315508
-4.4386244 -16.188532 2.3912599
-32.214771 -5.59266 4.0196433
-0.60490155 -5.9984751 1.3347578
-4.4964409 -16.225864 2.3966362
-32.696651 -5.588212 4.0652657
-0.60483956 -5.9589624 1.3311737
-4.5338125 -16.213676 2.3968251
-33.365669 -5.6000023 4.1288939
-0.63366032 -5.9898982 1.3314254
-4.5795813 -16.209585 2.3881342
-33.624962 -5.5500822 4.1527781
-0.64189649 -5.9689837 1.3298316
-4.6256132 -16.21051 2.389822
-34.175541 -5.5490456 4.2050242
-0.66065288 -5.9783587 1.3313317
-4.666153 -16.206167 2.3908534
-34.635925 -5.5252256 4.2484074
-0.66093874 -5.9375124 1.327675
-4.6990557 -16.173391 2.3890719
-35.095451 -5.4990091 4.2916975
-0.68759966 -5.9635487 1.3309567
-4.7601929 -16.211912 2.3946977
-35.553101 -5.4775095 4.3348937
-36.438683 -5.6022587 4.4207273
-0.69525599 -5.9447985 1.3295503
-4.7979188 -16.200008 2.394979
-36.342628 -5.4887896 4.4100914
-0.7084589 -5.9353061 1.3291752
-4.8289332 -16.158222 2.3923535
-36.726364 -5.4484215 4.4311128
-0.73041558 -5.9505424 1.3313317
-4.8947554 -16.211292 2.3994796
-37.288422 -5.4338102 4.4841723
-4.9413214 -16.220667 2.4020112
-37.622684 -5.3753014 4.5151162
-0.76514482 -5.9563012 1.3331132
-4.982934 -16.204655 2.4021049
-38.132381 -5.3453188 4.5630651
-0.78469753 -5.9650531 1.3346134
-5.0270386 -16.20327 2.4036052
-38.740059 -5.329174 4.6204925
-0.81386232 -5.9981952 1.3386452
-5.0782537 -16.223034 2.4072618
-39.467018 -5.3130283 4.6892562
-0.80719709 -5.9409204 1.3333008
-5.107831 -16.177988 2.4043553
-39.89595 -5.2651901 4.7293992
-0.8332541 -5.9647474 1.3363949
-5.1674991 -16.212961 2.4096997
-40.881416 -5.2854252 4.8231602
-5.2217808 -16.238853 2.4106872
-41.465004 -5.2418385 4.8780785
-0.85876942 -5.9476681 1.3346499
-5.26192 -16.218534 2.4104064
-0.87789845 -5.9531951 1.3358665
-5.2993183 -16.196096 2.4098449
-42.552185 -5.1539345 4.9803877
-5.3599358 -16.235525 2.4156468
-42.575859 -5.0453014 4.981503
-0.93038535 -5.9992805 1.3419489
-5.403193 -16.226215 2.4164889
-0.91603827 -5.9280839 1.3351178
-5.4350858 -16.190985 2.4146173
-0.91130829 -5.8823528 1.3309069
-5.4878249 -16.211264 2.4184539
-0.9624896 -5.9595957 1.3397031
-5.5397911 -16.221136 2.4213548
-0.97743654 -5.9550362 1.3398902
-5.589859 -16.226416 2.4237878
-0.983284 -5.9332123 1.3382058
-5.6337376 -16.225843 2.4254723
-45.598034 -4.6752605 5.2882624
-5.6886783 -16.237225 2.428654
-45.651089 -4.5661888 5.2923713
-1.0227675 -5.9451547 1.340826
-5.7240725 -16.213591 2.4279988
-45.625065 -4.4544315 5.2889161
-1.0402701 -5.9488835 1.3418553
-5.7769842 -16.232079 2.431742
-1.1036043 -6.0470448 1.3529909
-5.8362479 -16.251804 2.4358592
-1.0771337 -5.9542923 1.3438203
-5.8621769 -16.207581 2.4330521
-1.0868785 -5.9411449 1.3430718
-5.9161568 -16.22739 2.4369822
-1.0828321 -5.8946972 1.3388609
-5.9569983 -16.207077 2.4368887
-1.1108952 -5.9190454 1.342136
-6.0001621 -16.199522 2.4380114
-1.1213467 -5.9075975 1.3415745
-6.0527148 -16.21538 2.4415674
-6.1158724 -16.241133 2.4464333
-1.1660191 -5.927084 1.3451304
-6.1598749 -16.230669 2.4473691
-1.1879519 -5.9391203 1.3470956
-6.2042246 -16.228565 2.4490535
-1.2157511 -5.9601507 1.35009
-7.0420303 -17.835848 2.6234803
-1.2230172 -5.9392414 1.3485928
-7.0797415 -17.80212 2.6221702
-1.2407873 -5.9423733 1.3496221
-7.1442466 -17.830921 2.6274107
-1.2519597 -5.9281201 1.3488736
-7.0471077 -17.523104 2.5967174
-1.2624331 -5.9152575 1.3482184
-7.135572 -17.596191 2.6068237
-1.2929392 -5.9434218 1.3519616
-7.3083081 -17.838953 2.6351774
-1.3146449 -5.9498496 1.3534589
-7.3391819 -17.787319 2.6320894
-1.3277841 -5.9420519 1.3533652
-7.3899794 -17.78322 2.633961
-1.3505946 -5.95438 1.3554239
-7.4649382 -17.829966 2.6412599
-1.3536468 -5.9243579 1.3529909
-7.5036306 -17.793571 2.6398563
-1.379298 -5.9406061 1.3555175
-7.5577116 -17.795042 2.6423829
-1.4072071 -5.9622145 1.3586055
-7.6223574 -17.820484 2.6474359
-1.4169183 -5.9450283 1.3575761
-7.6595707 -17.781151 2.6457515
-1.4286662 -5.9344149 1.3572018
-7.7283697 -17.809641 2.6512725
-1.462803 -5.9658017 1.3614128
-7.7914076 -17.82675 2.6555772
-1.4723699 -5.9496565 1.360477
-7.8429346 -17.817921 2.6571679
-1.4948076 -5.9574485 1.3621614
-7.8912411 -17.802952 2.6581037
-1.5120382 -5.9580674 1.3630036
-8.030798 -17.963945 2.678129
-1.5290569 -5.9543328 1.3634715
-8.2168217 -18.195803 2.7062955
-1.5435853 -5.9485903 1.3636587
-7.05581 -15.981091 2.4656167
-1.5576189 -5.9432149 1.3626051
-7.9315982 -17.481161 2.6289763
-1.5736856 -5.9376459 1.3628852
-7.9793992 -17.462452 2.6296299
-1.5905577 -5.9360313 1.363539
-8.0352592 -17.465818 2.632525
-1.6178513 -5.9541645 1.3663408
-8.0728731 -17.440279 2.6321516
-1.6354002 -5.9509683 1.3669012
-8.1182194 -17.416948 2.6323383
-8.1390877 -17.358183 2.6284158
-1.6933633 -5.9906979 1.3729715
-8.1711226 -17.323137 2.6270151
-1.6979593 -5.9645324 1.3710103
-8.1357365 -17.15966 2.6116991
-1.7276336 -5.9844508 1.3740921
-7.0628061 -15.210935 2.3980222
-1.7154003 -5.9319892 1.3691425
-8.1349411 -16.972595 2.596103
-1.7172116 -5.902801 1.3668077
-8.2064552 -16.999538 2.6017997
-1.7652216 -5.9524021 1.3732517
-8.2692919 -17.011141 2.6058154
-1.7985498 -5.9790182 1.3770807
-8.3181553 -17.006029 2.6077766
-1.8236758 -5.9889827 1.3791351
-8.3891296 -17.030621 2.6132867
-1.8368989 -5.9788342 1.3789485
-8.4388361 -17.019091 2.6147809
-8.4963579 -17.027674 2.6183298
-1.8979205 -6.017005 1.3851122
-8.5552702 -17.027344 2.6212249
-1.8732845 -5.9455452 1.3780146
-8.608511 -17.024618 2.6236529
-1.5532115 -5.8819375 1.3294224
-7.0481367 -15.92169 2.3791635
-7.0971079 -15.914774 2.380769
-7.9687052 -17.497524 2.5464942
-1.6033735 -5.9064965 1.3336146
-8.014719 -17.483223 2.5473862
-1.622048 -5.9094744 1.3346848
-8.0784655 -17.504553 2.5519352
-8.1644382 -17.553444 2.5596952
-1.6812291 -5.9487782 1.3404826
-8.2340364 -17.580154 2.5649576
-1.6909684 -5.9354577 1.3398583
-8.2360144 -17.490801 2.5579112
-1.7027755 -5.9220395 1.339323
-8.2671194 -17.441814 2.5554137
-1.7158673 -5.9134383 1.3392339
-8.7410116 -18.173466 2.6352437
-1.7366469 -5.9194441 1.340661
-7.0739794 -15.184477 2.3213649
-1.7747065 -5.9513645 1.3449423
-8.1629162 -16.974537 2.5134919
-1.7869385 -5.9397554 1.3445857
-8.9259043 -18.187916 2.6448767
4.8490419 -5.9707727 1.3497229
10.260536 -15.365932 2.3546474
-1.798537 -5.9295983 1.344318
-8.8103085 -17.89616 2.6164234
10.22145 -15.378292 2.3538363
-1.8260044 -5.9439125 1.3467263
-8.8226528 -17.816717 2.6107149
4.7947712 -5.939105 1.3446758
10.155872 -15.350803 2.3486087
-1.8510849 -5.9539423 1.3486886
-7.9342632 -16.218073 2.4430275
4.7715497 -5.9310465 1.3429632
10.105821 -15.350156 2.3462656
-1.871159 -5.9578505 1.3499373
-7.9734592 -16.200438 2.4434736
4.7599697 -5.940937 1.3432337
10.06587 -15.360434 2.3452742
-1.8699152 -5.9223423 1.3470831
-8.0337029 -16.207493 2.4468629
4.7329521 -5.9271131 1.3408904
10.004002 -15.341648 2.3409481
-1.9110951 -5.9599967 1.3519888
-8.091486 -16.217014 2.4503415
9.960783 -15.349072 2.339596
-1.927238 -5.9570622 1.352524
-8.9035616 -17.474977 2.5876133
4.6833067 -5.9002209 1.3364742
9.9095993 -15.338563 2.3364415
-1.95059 -5.9622197 1.3540404
-8.9592352 -17.466192 2.5895758
4.6809373 -5.930408 1.3388174
9.8569946 -15.335393 2.333828
-1.9591818 -5.9455762 1.3531483
-9.0385561 -17.503204 2.5962653
9.8292866 -15.370564 2.3354502
-1.9672613 -5.9294076 1.3503395
-9.1065388 -17.524847 2.5953376
4.6445961 -5.9270191 1.3369248
9.762002 -15.329739 2.3291411
-2.0044689 -5.9567227 1.3542519
-7.0355539 -14.080908 2.2279379
4.6443076 -5.9614706 1.3397187
9.7281036 -15.3603 2.3301327
-2.0361168 -5.9771376 1.3573639
4.6154823 -5.9405589 1.3367445
9.690094 -15.376383 2.3297722
-2.0260601 -5.9318261 1.3533627
-9.2661467 -17.501322 2.6012061
4.6001558 -5.9432616 1.3362939
9.6388245 -15.364155 2.3265276
-2.0366011 -5.9160256 1.3526514
-9.3226709 -17.492254 2.6032512
4.5804644 -5.9416385 1.3353025
9.5805836 -15.348926 2.3227422
-2.0782409 -5.9518456 1.3574529
-9.3800764 -17.491676 2.6060076
4.5750628 -5.9643106 1.3369248
9.5376263 -15.355185 2.3213902
-2.0725536 -5.9139938 1.3542519
-9.424408 -17.473921 2.6068079
4.5610704 -5.9694862 1.3367445
9.497942 -15.364007 2.3203988
-2.1071048 -5.9357891 1.3576307
-9.4673729 -17.443056 2.6065412
4.5532165 -5.9903889 1.3350081
9.4443645 -15.356699 2.3092713
-2.1386156 -5.9537048 1.3605649
-9.5307016 -17.447498 2.6100087
4.514781 -5.9511976 1.3301665
9.3991413 -15.361607 2.3077469
-2.1527758 -5.9468889 1.3607427
-9.5702343 -17.422009 2.6100087
4.4968171 -5.9484506 1.3291802
9.3612957 -15.373529 2.3071194
-2.1722546 -5.9458528 1.3616319
-9.6230631 -17.409786 2.6116982
4.4658117 -5.9228468 1.325773
9.2979069 -15.342717 2.301919
-2.1699386 -5.9113774 1.3588755
-9.6711121 -17.390079 2.6125875
4.4588032 -5.9439058 1.3272076
9.2492905 -15.340273 2.2996774
-2.1824117 -5.9020433 1.3587866
-9.6811476 -17.319557 2.607697
4.4541163 -5.9670153 1.3289112
9.2163754 -15.361369 2.3000362
-2.2302492 -5.9427338 1.3642993
-9.6716881 -17.209339 2.5988054
4.4433217 -5.9822764 1.3297181
9.1593742 -15.345501 2.29636
-9.652586 -17.09252 2.5889359
4.415278 -5.9604492 1.3267593
9.106698 -15.330605 2.2929528
-2.26017 -5.9298749 1.3648329
-9.6842852 -17.056236 2.5877798
4.404367 -5.9713311 1.3272076
9.0772476 -15.358349 2.2940288
-2.2791843 -5.9265127 1.3655441
-9.7293663 -17.029579 2.5880466
4.3766909 -5.9524965 1.3245177
9.0256882 -15.352451 2.2914286
-9.7755222 -17.011419 2.5890248
4.3549352 -5.9426241 1.3228142
8.9873943 -15.365912 2.2909803
-2.3248873 -5.9367447 1.3686562
-9.8500643 -17.0385 2.5948932
4.3453131 -5.9560037 1.3235315
8.9701691 -15.418756 2.2946563
-2.3094583 -5.8825583 1.3637658
-9.8721113 -16.977654 2.5914254
4.3229656 -5.9474201 1.3219175
8.9462461 -15.469352 2.2978842
-2.3515201 -5.9150643 1.3683894
-9.925354 -16.96954 2.5935595
4.3025627 -5.939887 1.3216882
8.8488293 -15.360603 2.2881837
-2.3683958 -5.9117327 1.3690119
-9.9930153 -16.985598 2.5982718
4.2962618 -5.9601851 1.3231256
8.855751 -15.464108 2.2970788
-10.082233 -17.022083 2.6056519
4.2807107 -5.9654646 1.322946
8.8084698 -15.466236 2.2953715
-2.4220934 -5.9277849 1.373013
-10.125663 -16.995487 2.6059186
4.2502999 -5.9379253 1.3194419
8.7668476 -15.476319 2.2945631
-2.4418266 -5.9282465 1.3740801
-10.183662 -16.996525 2.6090307
4.2339602 -5.937036 1.3187231
8.7517414 -15.535067 2.2988758
-2.4626708 -5.9278822 1.3751471
-10.249413 -17.001488 2.612854
4.2194386 -5.9427757 1.3186333
8.6815596 -15.484213 2.2918675
-2.4801688 -5.9226837 1.3756804
-10.317508 -17.009405 2.6170332
4.2130995 -5.966116 1.3203404
8.6370811 -15.48778 2.2904301
-2.5282264 -5.9627542 1.3791794
-10.373802 -17.007124 2.6138792
4.1726913 -5.9130306 1.3143206
8.5331669 -15.354801 2.2752457
-2.5254664 -5.9277048 1.3764317
-10.427303 -16.990507 2.6154745
4.1629643 -5.9303527 1.3153987
8.4843884 -15.351561 2.2730894
-10.510488 -17.021849 2.622211
4.1393313 -5.9144278 1.3131526
8.5091438 -15.501699 2.2866564
-2.5776787 -5.9440975 1.3804202
-10.567244 -17.019346 2.6250472
4.1379957 -5.9460096 1.3157581
8.5587664 -15.70452 2.3056142
-2.5809731 -5.9177084 1.3786476
-10.630014 -17.014748 2.6280608
4.1213255 -5.9482012 1.3153088
8.5279932 -15.742951 2.3076808
-2.627764 -5.9534268 1.3837883
-10.675881 -16.993422 2.6289473
4.0930481 -5.9214506 1.3119845
8.4897184 -15.756919 2.3074112
-2.6299472 -5.9289455 1.3821044
-10.739079 -16.999035 2.6327586
4.0962472 -5.9636736 1.3156683
8.4450073 -15.752357 2.3053448
-2.6694224 -5.951838 1.3859158
-10.81468 -17.01108 2.6377223
8.4050541 -15.770374 2.3020983
-2.6836452 -5.9425459 1.3860043
-10.880267 -17.015844 2.6416223
4.0472336 -5.9290895 1.3097236
8.3866434 -15.82946 2.306402
-2.7431555 -5.9952698 1.3930953
-10.935053 -17.0091 2.644104
4.0443239 -5.9579515 1.3120549
8.3380318 -15.815681 2.3034432
-2.7323756 -5.9499288 1.3891952
-11.020901 -17.033642 2.6505744
4.0245996 -5.9527321 1.3108892
8.306284 -15.852781 2.3054159
-2.7547412 -5.9501767 1.3904362
-11.080218 -17.025633 2.6532335
3.9997044 -5.9338121 1.3083787
8.2478733 -15.823954 2.300843
-2.7725248 -5.9465175 1.3911452
-11.108225 -16.982611 2.651638
3.9977584 -5.9653225 1.3109789
8.2147579 -15.845538 2.3014708
-2.8061075 -5.9613438 1.3940701
-11.196931 -17.013029 2.6587288
3.9820604 -5.9677725 1.3106202
8.1732807 -15.855783 2.300843
-2.8285425 -5.9612985 1.3959994
-11.255075 -17.00276 2.6632307
8.1197195 -15.837236 2.2973464
-2.8446221 -5.955121 1.3964431
-11.324352 -17.013437 2.6678448
3.9363804 -5.9353046 1.3062267
8.0688972 -15.816379 2.2937598
-2.8753963 -5.9645805 1.3988388
-11.398569 -17.020164 2.6724586
3.9373937 -5.9791288 1.3099926
8.0256739 -15.825961 2.2930424
-2.8890707 -5.9540138 1.3988388
-11.457182 -17.012968 2.6752093
7.9995155 -15.868358 2.2957323
-2.924875 -5.9729986 1.4022105
-12.519047 -18.297623 2.8272023
3.8906856 -5.9415908 1.3051509
7.9418807 -15.830017 2.2904422
-2.9426603 -5.9652843 1.4026542
-12.609462 -18.317112 2.8336797
3.8760219 -5.9475765 1.3051509
7.9045348 -15.853662 2.2911596
-2.9707651 -5.9729013 1.4047836
-12.680371 -18.318342 2.8377612
3.868257 -5.9675121 1.3065854
7.8566279 -15.842649 2.2885594
-2.9893384 -5.9694052 1.4055822
-12.74481 -18.314598 2.8411329
3.8352084 -5.9230442 1.30282
7.8159838 -15.845062 2.2906096
-2.9654012 -5.9089608 1.3999035
-12.815712 -18.308054 2.844682
3.8371406 -5.9704437 1.306953
7.767755 -15.8413 2.2886331
-2.9595249 -5.8738561 1.3970642
7.7397366 -15.87962 2.2909691
-2.9712267 -5.8620014 1.3968867
7.6977816 -15.878385 2.2894416
-2.9771812 -5.8397398 1.3956444
3.7920854 -5.9777441 1.3060546
7.6570315 -15.893287 2.2893519
-3.0113735 -5.8546176 1.3986614
3.7689452 -5.9585652 1.3036287
7.600637 -15.858857 2.2845001
-3.0181079 -5.8366189 1.397774
7.5748911 -15.899014 2.2871056
-3.0528698 -5.8496704 1.400702
-13.198006 -18.244637 2.8620729
3.7397652 -5.9656096 1.3032691
7.5119133 -15.855444 2.2812655
-3.0822499 -5.8570123 1.4029202
-13.263194 -18.23266 2.865001
3.7152569 -5.9437151 1.3005738
7.4772005 -15.881119 2.2823436
-3.1093798 -5.8636336 1.4049611
-13.346654 -18.249554 2.8710346
3.7094049 -5.9677486 1.3024607
7.4429975 -15.899218 2.2827928
-3.1276979 -5.8572955 1.4055822
3.6931796 -5.9675941 1.3019215
7.3894296 -15.87463 2.2789295
-3.151 -5.8568735 1.406913
3.6708922 -5.9509802 1.2997651
7.3502002 -15.888173 2.2788396
-3.1582541 -5.8393893 1.4061146
7.315948 -15.905993 2.2792888
-3.1896238 -5.8473158 1.4085102
3.6351399 -5.9392543 1.2976089
7.2721457 -15.911676 2.2783904
-3.2086742 -5.8426728 1.4093088
-13.336248 -17.794121 2.8385596
3.640491 -5.9964552 1.3009815
7.2268686 -15.903766 2.2714548
-3.2429552 -5.8569388 1.4123256
-13.42259 -17.813932 2.845037
7.1876144 -15.907587 2.2705591
-3.2751484 -5.8652611 1.4148099
-13.497083 -17.809164 2.8491185
7.1497536 -15.929401 2.2712758
-3.289217 -5.8544726 1.4148988
-13.550529 -17.786373 2.8507156
3.5841873 -5.9701271 1.2969509
7.0963349 -15.897806 2.2668869
-3.3186214 -5.8625093 1.4172057
-13.632794 -17.800205 2.8565717
3.5591662 -5.9407969 1.2936368
7.0639286 -15.92057 2.2678721
-3.3401372 -5.8580236 1.4181817
-13.717701 -17.806427 2.8620729
3.5445061 -5.9459238 1.2936368
6.8433518 -15.417709 2.2174451
-3.3626356 -5.8567472 1.4172852
-13.786987 -17.801071 2.8591011
3.5334606 -5.9579902 1.2943535
6.7692552 -15.320929 2.2067864
-3.4101377 -5.8849697 1.4220614
-13.875409 -17.820631 2.8657348
3.5238609 -5.9726086 1.2953386
6.7794366 -15.463467 2.2195053
-3.4478469 -5.8984361 1.4252456
-13.969059 -17.835423 2.8723686
6.8913598 -15.921572 2.2627668
-3.5186505 -5.9500818 1.4330292
-14.036697 -17.823677 2.8756411
3.4790554 -5.9354649 1.2907708
6.8209591 -15.841721 2.2537203
-3.5253797 -5.9324026 1.4322331
-14.088978 -17.804573 2.8774986
3.4770784 -5.9710102 1.2938161
6.7918797 -15.868935 2.2552431
-3.5880404 -5.9729476 1.4387784
-14.171312 -17.80541 2.8825402
6.733737 -15.828869 2.2500479
-3.615283 -5.9746456 1.4405475
-14.27158 -17.829151 2.8902352
3.4414439 -5.9603009 1.2918456
6.7077327 -15.880485 2.2538099
-3.6219134 -5.9555802 1.4396629
-14.308064 -17.78842 2.8897045
3.4413879 -6.0044389 1.2945421
6.679162 -15.914722 2.2528057
-3.6544108 -5.9628921 1.4421395
-14.404668 -17.807226 2.8968689
3.4109278 -5.959126 1.2897155
6.6551561 -15.973663 2.2572746
-3.6620708 -5.9427738 1.441255
-14.481799 -17.804104 2.9013798
3.3914127 -5.9470282 1.2881067
6.6163182 -15.987214 2.257364
-3.6876307 -5.9444427 1.4429355
-14.56682 -17.815979 2.9073944
3.3822052 -5.9632473 1.2892686
6.5707126 -15.969131 2.254504
-3.7221103 -5.952384 1.4455891
-14.654399 -17.820042 2.9130552
3.3657298 -5.9623528 1.2887323
6.5274487 -15.973675 2.2536993
-3.7476444 -5.9526339 1.4471811
-14.73411 -17.821888 2.9180968
6.4816804 -15.959524 2.2511966
-3.7647161 -5.9447551 1.4477118
-14.800319 -17.812201 2.9215465
3.3343985 -5.955862 1.2873023
6.4452996 -15.969853 2.2511075
-3.7901931 -5.9425545 1.4468875
-14.907243 -17.835701 2.9227619
3.3174105 -5.9529724 1.2865872
6.3917933 -15.940596 2.2470851
-3.7964878 -5.9219961 1.4459176
-14.987288 -17.836666 2.9277875
6.365314 -15.988379 2.250571
-3.8188591 -5.9196348 1.4471519
-15.813314 -18.631205 3.0315633
3.2870767 -5.9490137 1.2854252
6.3209858 -15.972376 2.2479789
-3.8569326 -5.9304757 1.450238
-15.918386 -18.646944 3.0391459
3.2712793 -5.9497108 1.2850677
6.2778349 -15.976235 2.2471745
-3.8832707 -5.930932 1.4519131
-15.972486 -18.615637 3.0404685
3.2493715 -5.9258041 1.2823863
6.2462945 -16.007978 2.249141
-3.8963187 -5.9184685 1.4519131
-16.05101 -18.613258 3.0452297
3.2407749 -5.9445763 1.2838163
6.2048688 -16.000973 2.2474427
-3.9392884 -5.9338422 1.4556162
-16.130848 -18.601332 3.0494618
3.2345541 -5.9778175 1.2865872
6.1589804 -15.995178 2.2457445
-3.9649239 -5.9320831 1.4571152
-16.241438 -18.624369 3.0579262
5.7169328 -14.613713 2.1124761
-3.9908514 -5.9326844 1.4587904
-16.303993 -18.604361 3.0605712
5.6804552 -14.611061 2.1113141
-3.9961557 -5.9098673 1.4576442
-16.397245 -18.608564 3.0667431
3.1786425 -5.9392729 1.2817606
6.0345187 -15.993578 2.2424374
-4.045661 -5.9321766 1.462229
-16.491993 -18.613804 3.0730913
3.1582093 -5.9207945 1.2796154
5.9890127 -15.982188 2.2402921
-4.0894389 -5.9505038 1.4661967
-16.575844 -18.61454 3.0784698
5.5743556 -14.635002 2.1107779
-4.1041656 -5.9359465 1.4661967
-16.662334 -18.606993 3.0834954
3.1373363 -5.9528608 1.2819393
5.9121833 -16.003601 2.2402921
-4.1342382 -5.938972 1.4683127
-16.755682 -18.612961 3.0898435
3.1275833 -5.9706678 1.28328
5.8749957 -16.015839 2.2404709
-4.1410632 -5.9196939 1.4682875
-16.859623 -18.632566 3.1002712
3.105072 -5.9395061 1.2799729
5.834198 -16.008804 2.238862
-4.1763988 -5.9255762 1.4709353
-16.929893 -18.607538 3.103184
3.0941956 -5.9575472 1.2813137
5.7974977 -16.034817 2.2402921
-4.2203922 -5.9419909 1.4748189
-17.027752 -18.616608 3.1100683
3.0755877 -5.9423847 1.279526
5.7504845 -16.010126 2.236985
-4.2459359 -5.9410372 1.4764078
-17.126076 -18.629154 3.1172178
3.0677528 -5.9655809 1.2814031
5.7204671 -16.043213 2.2392197
-4.2793918 -5.9444537 1.4787908
-18.906649 -20.279221 3.3374341
5.2933521 -14.57078 2.0983536
5.6742558 -16.033195 2.2372532
-4.2832661 -5.9210138 1.4775552
-19.089657 -20.361927 3.354557
3.0386596 -5.9701462 1.2811348
5.6328416 -16.02886 2.2359123
-4.3339715 -5.9442124 1.4823213
-19.454073 -20.623356 3.394805
3.0289319 -5.9866986 1.2823863
5.6040549 -16.067373 2.2386832
-4.3486805 -5.9290218 1.4823213
-19.022633 -20.101425 3.3337269
5.1891232 -14.597523 2.0983536
5.5626965 -16.075874 2.2385044
-4.3811975 -5.9331207 1.4847045
-19.023167 -20.00696 3.3278134
5.1519637 -14.594831 2.097281
5.5267119 -16.092943 2.2392197
-4.4046307 -5.9283552 1.4859401
-18.923569 -19.817139 3.3093665
2.9858267 -5.9935303 1.2820287
5.4864626 -16.092939 2.2383258
-4.4539795 -5.9470782 1.4903533
-19.8451 -20.596891 3.4187243
2.9685721 -5.9847593 1.2808667
5.4431 -16.086594 2.2368062
-4.4702702 -5.9341588 1.490618
-19.267284 -19.948343 3.3401701
2.9488506 -5.9655418 1.2787216
5.4082651 -16.115099 2.2385938
-4.5151687 -5.950366 1.4945899
-20.098766 -20.641647 3.4382305
2.9307737 -5.9478936 1.2767551
5.3709116 -16.120102 2.2382364
-4.5277653 -5.9327106 1.4943252
-18.918541 -19.429283 3.2848291
2.9293356 -6.0072212 1.2820287
5.0197835 -14.82221 2.1147106
-4.5442019 -5.9208355 1.4946781
-19.023453 -19.435301 3.292155
4.982029 -14.818126 2.1135485
-4.5785995 -5.9267111 1.4973261
-19.061832 -19.382671 3.2914491
4.9406509 -14.791836 2.1103308
-4.6082621 -5.9247503 1.4991796
-19.202702 -19.413807 3.3027465
2.8843043 -6.0027485 1.280688
5.2143049 -16.156853 2.2382364
-4.636867 -5.9238558 1.5010331
-19.287216 -19.399622 3.3075128
2.8667095 -5.9888096 1.2790791
5.1409431 -16.010012 2.2235777
-4.7158895 -5.9700799 1.5091534
-19.417294 -19.430489 3.3181045
4.7902951 -14.617694 2.09165
5.1062303 -16.024826 2.2242033
-4.7364168 -5.9591398 1.5098593
-19.507126 -19.412884 3.3230472
2.8453074 -6.024507 1.2818499
5.0660925 -16.036772 2.2244716
-4.7486315 -5.9428048 1.5096829
-19.608471 -19.412708 3.3298435
2.8321602 -6.0303946 1.2821181
5.0035281 -15.932066 2.213835
-4.7689247 -5.9348655 1.5105655
-19.720375 -19.425268 3.3381402
2.8074145 -5.9802113 1.2754351
5.0018086 -16.098103 2.2240171
-4.8074923 -5.9399872 1.5134783
-19.845924 -19.438419 3.3474078
2.7743244 -5.897809 1.2674159
-4.8122163 -5.9157586 1.5123308
-19.917616 -19.40646 3.3503203
2.7480381 -5.8427539 1.2619807
-4.8712001 -5.9431248 1.5179796
-20.048468 -19.437967 3.3610885
2.7427394 -5.8786511 1.2650993
-4.8888192 -5.929122 1.5183327
-20.159245 -19.436178 3.3685026
2.7274556 -5.8778553 1.2647429
-4.9452906 -5.9503794 1.5234519
-20.284382 -19.450172 3.3778584
2.7061121 -5.844511 1.2613569
-4.9620371 -5.9386754 1.5238932
-20.382629 -19.447357 3.3843899
2.7002223 -5.8814282 1.2645646
-4.9908495 -5.9352636 1.5256585
-21.584393 -20.398523 3.5233159
2.6847377 -5.876595 1.2638518
-5.0343809 -5.9444876 1.529189
-21.611759 -20.321098 3.5205798
2.6739683 -5.8955765 1.2653666
-5.0665979 -5.9458981 1.5314839
-22.023033 -20.583017 3.5643582
2.6586356 -5.8856878 1.2642082
-5.1241055 -5.9655609 1.5366031
-18.038773 -17.05554 3.0814712
2.6475928 -5.9066324 1.2659011
-5.1185513 -5.9331751 1.5343082
-21.837952 -20.22084 3.5302005
2.6265244 -5.8690615 1.2621589
-5.1567879 -5.9392924 1.5373092
-21.949024 -20.222475 3.5379677
2.6213255 -5.9125834 1.2659903
-5.1855888 -5.9339089 1.5389862
-22.056318 -20.208755 3.5445874
2.6137719 -5.9535427 1.2695544
4.4887466 -16.156231 2.2200077
-5.2274532 -5.9416084 1.5423403
-22.193354 -20.227345 3.5551789
2.6032922 -5.973249 1.2711582
4.4463472 -16.139256 2.2177801
-5.2934451 -5.9704065 1.5486069
-22.313042 -20.234558 3.5639169
2.5884757 -5.9660368 1.2702671
4.4088192 -16.140087 2.2172456
-5.3298817 -5.9707923 1.5511665
-22.443119 -20.238171 3.5731847
2.5771291 -5.9878058 1.2720492
4.3664045 -16.139717 2.2165327
-5.3675156 -5.9742126 1.553991
-22.557564 -20.235929 3.5810401
2.5561187 -5.9480429 1.2681286
4.3315458 -16.164574 2.2182255
-5.353662 -5.9360409 1.5508134
-22.659725 -20.226906 3.5876598
3.8489175 -13.568531 1.9763131
-5.4021654 -5.9459906 1.5547853
-22.794762 -20.232752 3.5974569
2.5351882 -5.9930668 1.271871
4.2496367 -16.15295 2.215909
-5.4404907 -5.9484448 1.5567471
-22.907957 -20.223936 3.6018457
2.5164797 -5.9685907 1.269376
4.2121325 -16.172049 2.2170672
-5.4882803 -5.9606285 1.5608029
-24.468845 -21.400009 3.7788906
2.5011857 -5.9573154 1.2681286
4.1739855 -16.168488 2.2161763
-5.4956789 -5.9376183 1.5600094
-24.602369 -21.40061 3.7883248
2.4949265 -6.0085807 1.2726729
4.1345258 -16.175886 2.2162654
-5.5507307 -5.9530315 1.5647705
-24.304262 -21.053005 3.7475021
2.4716499 -5.9541974 1.2674159
4.0927606 -16.168779 2.215018
-5.6222625 -5.9835625 1.5715597
-26.866405 -23.008501 4.039609
4.0549917 -16.166855 2.2143052
-5.6570544 -5.9820943 1.5739402
-24.634844 -21.113258 3.7743058
3.8536606 -15.121456 2.1168272
-5.7429342 -6.0209842 1.5822282
-24.709618 -21.066113 3.7769508
2.4266441 -5.9365702 1.2651883
3.8162208 -15.124215 2.11656
-5.7493134 -5.9988174 1.5814346
-24.767359 -21.013521 3.7780972
2.4131889 -5.9355879 1.2654693
3.9352794 -16.158421 2.2134385
-5.7656898 -5.9811649 1.5816109
-24.919682 -21.022875 3.7894709
3.8525138 -15.879663 2.1870365
-5.8039179 -5.9828315 1.5844324
-25.102726 -21.063627 3.8048127
2.3899646 -5.974369 1.2686803
3.823144 -15.940916 2.19221
-5.8239899 -5.9713225 1.5852258
-25.150539 -21.0023 3.8048127
2.375633 -5.9675722 1.2678776
3.8181558 -16.165596 2.2125466
-5.8679957 -5.9748878 1.5885763
-25.30493 -21.011127 3.8163629
2.3615761 -5.974452 1.2683234
3.7791662 -16.186771 2.2139735
-5.9302392 -5.9945221 1.594131
-25.46096 -21.028625 3.8285303
2.3412225 -5.9271884 1.2637745
3.7331491 -16.134205 2.208622
-5.9665895 -5.9950924 1.5967761
-25.587439 -21.026802 3.8375235
2.3357191 -5.9848499 1.2689478
3.7038975 -16.193113 2.2136168
-6.0114079 -5.9985228 1.591949
-25.743809 -21.034794 3.8194025
2.3182876 -5.9665623 1.2670748
3.6592765 -16.172548 2.2112086
-6.0272532 -5.9808903 1.5921237
-29.038559 -23.425222 4.1847939
3.6242528 -16.21339 2.2145088
-5.9971614 -5.9319954 1.5873206
-29.192066 -23.435104 4.1963215
2.2865555 -5.9304533 1.2634177
3.5834947 -16.1735 2.2104058
-6.0079441 -5.9095798 1.5868839
2.2743189 -5.9515886 1.2652016
3.5372 -16.137157 2.2065704
-6.0321493 -5.8983445 1.5880191
2.2642827 -5.987113 1.2683234
3.5007143 -16.167109 2.2088895
-6.0849314 -5.9105225 1.592473
2.247582 -5.9587569 1.2655585
3.4644961 -16.174404 2.209157
-6.1146507 -5.9030957 1.5942197
-27.675289 -21.841282 4.001574
2.2362392 -5.9845743 1.2677883
3.4240823 -16.172314 2.2085328
-6.2188196 -5.9502959 1.6042626
-27.790127 -21.813368 4.0083861
2.2217851 -5.9841814 1.2687109
3.3827739 -16.162109 2.2102599
-6.1989403 -5.9083323 1.6005948
-27.95504 -21.830294 4.0212235
2.1993704 -5.9025493 1.261024
3.3433099 -16.140142 2.2078464
-6.2324228 -5.9020514 1.6026907
-28.079994 -21.804276 4.0289087
2.1869233 -5.9234915 1.2628117
3.3015103 -16.137909 2.2072208
-6.2758727 -5.905117 1.6060092
-29.053242 -22.40074 4.1310854
2.1767986 -5.956861 1.2657611
3.2665896 -16.171021 2.2099023
-6.2778077 -5.8791857 1.6047866
2.1648448 -5.9688792 1.2667444
3.2301207 -16.175846 2.2099917
-6.3105249 -5.8719969 1.6067953
-31.79446 -24.138458 4.4219837
3.1906414 -16.196535 2.2115111
-6.3881111 -5.898941 1.613869
-31.847652 -24.055696 4.4215469
2.1354175 -5.9611235 1.2657611
3.1497965 -16.173275 2.2090085
-6.4228067 -5.8961349 1.6228569
-29.997545 -22.627026 4.2379851
2.1214983 -5.9536958 1.2649567
3.1124697 -16.169121 2.2082934
-6.5263796 -5.9383502 1.6327109
-30.185671 -22.637325 4.2524142
2.9288559 -14.663698 2.0689471
3.0745301 -16.206945 2.2114217
-6.5503278 -5.9262981 1.6338546
-30.330761 -22.625526 4.2625322
2.091156 -5.9340973 1.2629009
3.033947 -16.184357 2.2090085
-6.6271358 -5.9522648 1.6408933
-30.485792 -22.624588 4.2739701
2.0790989 -5.9459329 1.2638842
2.9968257 -16.18187 2.2084723
-6.6817923 -5.9588904 1.6452925
-29.007751 -21.474312 4.1047783
2.0656946 -5.9617615 1.2652249
2.975728 -16.41608 2.2297451
-6.7271881 -5.9599795 1.6487238
-30.844666 -22.63142 4.300981
2.0474334 -5.9145265 1.2607558
2.9467235 -16.552284 2.2419903
-6.7819633 -5.9696341 1.6532991
-31.035494 -22.652779 4.3162899
2.0374947 -5.9524369 1.2641523
2.909915 -16.563162 2.2427053
-6.8074222 -5.956594 1.6545308
-32.340214 -23.426096 4.4531922
2.0238485 -5.9597969 1.2603185
2.7336373 -14.864258 2.0744402
-6.8730707 -5.9708214 1.6601617
-32.531342 -23.432436 4.4677973
2.0071433 -5.9279399 1.2573049
2.6904645 -14.778872 2.0663745
-6.9087501 -5.9667482 1.6626253
-32.706188 -23.436354 4.4810829
2.6584802 -14.799835 2.0680585
-6.986434 -5.9872661 1.669488
-29.042248 -20.839977 4.0749516
1.9823961 -5.9697747 1.2609389
2.735744 -16.391462 2.2132442
-7.0090389 -5.9727988 1.6704557
-33.088791 -23.444586 4.5102053
1.9678075 -5.9571609 1.2596979
2.5909605 -14.874928 2.0744402
-7.0237942 -5.9542227 1.6706316
-33.287727 -23.461975 4.5260425
1.9570377 -5.9920201 1.2628002
2.6374888 -16.062965 2.1827536
-7.0652714 -5.9498014 1.6735351
-33.452263 -23.441093 4.5373921
1.9419343 -5.9881482 1.262357
2.6282158 -16.551888 2.2271602
-7.132637 -5.9646282 1.6773531
-33.67561 -23.467888 4.547431
1.9262476 -5.9569893 1.2594321
2.5879359 -16.533991 2.2252989
-7.1912918 -5.9745679 1.6822697
-33.82082 -23.447121 4.5573521
1.9116039 -5.931581 1.2570388
2.5364366 -16.302332 2.2039375
-7.2199183 -5.9610157 1.6837623
-35.263058 -24.25742 4.7063432
1.8983161 -5.9557457 1.2591662
2.4927192 -16.265942 2.200392
-7.2980223 -5.9818649 1.6906981
-35.480392 -24.272953 4.7235518
1.8836913 -5.9380631 1.2574821
2.4515562 -16.216637 2.1956944
-7.3381405 -5.9789548 1.6935954
-35.663017 -24.270048 4.7372479
1.8718023 -5.9601336 1.2594321
2.4144211 -16.209881 2.1948967
-7.3365612 -5.945477 1.6918396
-35.847824 -24.252522 4.7504177
1.8573411 -5.9657493 1.2598753
2.3745995 -16.240177 2.1974671
-7.3739471 -5.9393997 1.6943856
-36.07737 -24.272816 4.7688551
1.8426878 -5.9450483 1.2579253
2.3341084 -16.195431 2.1932125
-7.4228487 -5.9404764 1.6981609
-36.270287 -24.268677 4.7833414
1.8306541 -5.9796362 1.2615745
2.2997122 -16.279654 2.2022822
-7.5085287 -5.9633498 1.7057992
-36.491188 -24.276215 4.8005495
1.8148139 -5.9423723 1.2581141
2.2579441 -16.237698 2.1982894
-7.5655546 -5.9677172 1.7103647
-37.927048 -25.046076 4.947258
2.1531167 -14.635041 2.0517974
2.2183614 -16.244217 2.1987331
-7.5877485 -5.9524527 1.7113304
-38.121712 -25.041328 4.9619203
1.7898962 -6.0017848 1.2634379
2.1797676 -16.197075 2.1942966
-7.6704817 -5.9723358 1.7186176
-38.40226 -25.078499 4.9851861
1.7740686 -5.9585762 1.2594451
2.1401582 -16.200485 2.194474
-7.7194519 -5.9708729 1.7223051
-38.61541 -25.072489 5.0012531
1.7589753 -5.9308777 1.2568719
2.0988226 -16.152283 2.1899488
-7.7808723 -5.9792867 1.7242544
-38.822578 -25.072422 5.0034318
1.7458813 -5.9283786 1.2566057
2.0655766 -16.259411 2.1996202
-7.8072777 -5.9622765 1.7254796
-39.305725 -25.224136 5.0476279
1.7317002 -5.944366 1.2580254
2.0221148 -16.186754 2.1928768
-7.8707914 -5.9702134 1.7307305
-42.745106 -27.181803 5.4035597
1.7183239 -5.9525127 1.2587352
1.9829788 -16.148903 2.1893277
-7.9504919 -5.9888563 1.7377319
-42.841068 -27.100506 5.4071479
1.9110007 -14.650597 2.0525072
1.9480257 -16.215921 2.1953614
-7.9869738 -5.9773402 1.7400074
-41.0168 -25.846462 5.2083092
1.8734322 -14.633926 2.05091
1.9050736 -16.136143 2.1879969
-8.0624294 -5.9914732 1.7464836
-41.248291 -25.846289 5.2261629
1.6770222 -5.9553795 1.2589127
1.8672118 -16.144676 2.1887066
-8.0714254 -5.966907 1.7460461
-41.491776 -25.857738 5.2455039
1.6635969 -5.9332433 1.2568719
1.8298645 -16.093779 2.1840041
-8.1698895 -5.9915686 1.7547977
-39.964935 -24.803772 5.078959
1.7688842 -14.639385 2.0540187
1.7892704 -16.1194 2.1893485
-8.2054081 -5.9811363 1.7570732
-41.975147 -25.852591 5.2826986
1.6355646 -5.9471488 1.2592009
1.7509618 -16.089731 2.1865921
-8.2588511 -5.9823108 1.7612741
-43.607819 -26.673695 5.4467931
1.622462 -5.940475 1.2585785
1.7147593 -16.109554 2.1883705
-8.2828932 -5.9623418 1.7622368
-43.877815 -26.67417 5.4677973
1.6077776 -5.9357271 1.2581339
1.6736512 -16.089451 2.1865032
-8.3678102 -5.9787846 1.7695882
-44.16074 -26.686569 5.4903769
1.5937445 -5.9523339 1.2596455
1.6342797 -16.09938 2.1873922
-8.3978157 -5.9657049 1.7713385
-44.365593 -26.664331 5.505342
1.5806949 -5.9543152 1.2598233
1.5978556 -16.085871 2.1861475
-8.5015087 -5.9921474 1.7806153
-46.034447 -27.467123 5.6715369
1.5665345 -5.973772 1.2616017
1.5584726 -16.064493 2.1841912
-8.5487518 -5.985888 1.7840285
-46.319405 -27.472076 5.6940289
1.5237894 -14.647478 2.054641
1.519074 -16.079971 2.1856141
-8.5297461 -5.944488 1.7807028
-39.946659 -23.720736 5.0287242
1.4909854 -14.601625 2.050462
1.4827676 -16.071058 2.1848137
-8.5300303 -5.9103317 1.7792151
1.5247073 -5.9482985 1.2592899
1.4423127 -16.019236 2.1801012
-8.5775137 -5.9051995 1.7827158
1.5113363 -5.9277501 1.2574227
1.4045672 -16.020826 2.180279
-8.6083393 -5.8918629 1.7845535
1.3859568 -14.653172 2.0552635
1.3682466 -16.028181 2.1809905
-8.6790781 -5.8966684 1.7903297
-49.07235 -28.22822 5.9433651
1.4838865 -5.9166942 1.2564445
1.3275275 -16.024685 2.1807237
-8.7283707 -5.8918686 1.7940054
-54.218315 -30.898966 6.4648795
1.469629 -5.9582801 1.260268
1.2899814 -16.013363 2.1797457
-8.8471394 -5.926115 1.8048575
-54.454239 -30.861137 6.4818578
1.4569554 -5.9385853 1.2584896
1.2535434 -16.024342 2.1808126
-8.9634857 -5.9545026 1.8152721
-54.751209 -30.834534 6.5041747
1.4424398 -5.9324374 1.257956
1.2128544 -16.02055 2.1805458
-9.1688004 -6.0329041 1.8348758
1.4280849 -5.9641948 1.2608902
1.1757879 -15.993397 2.1781452
-9.1186676 -5.9742122 1.8283997
1.4157796 -5.9356594 1.2583117
1.1395516 -15.995361 2.1784117
-9.1076984 -5.9328909 1.8257742
1.1385107 -14.675096 2.0577531
-9.144474 -5.9196987 1.8281372
1.0909195 -15.077395 2.0946531
-9.2873592 -5.9636989 1.8413522
-57.660454 -31.502506 6.7633123
1.3740325 -5.9499273 1.2597344
1.0559936 -15.101521 2.0969651
-9.3735895 -5.9731917 1.8486161
-57.947853 -31.45764 6.7843165
1.3601899 -5.9270468 1.2576894
1.0122566 -15.243969 2.1101246
-9.4438686 -5.975234 1.8543048
-59.617466 -32.139484 6.9458733
1.3453004 -5.9469099 1.2595565
0.94863129 -15.903309 2.1705873
-9.5010395 -5.9728112 1.858768
-59.940208 -32.128105 6.9711657
1.3344314 -5.8948784 1.2548441
0.91333866 -15.88629 2.1691647
-9.581831 -5.9796143 1.8655069
-59.971062 -31.949835 6.9662647
1.3190038 -5.9263315 1.2577783
0.87122869 -15.956494 2.1757443
-9.5839491 -5.9456978 1.8642817
-60.674889 -32.1166 7.0294518
1.3040593 -5.9441433 1.2594676
0.829772 -16.005217 2.1803679
-9.6620159 -5.9532242 1.8708453
-60.994171 -32.098759 7.054307
1.2911706 -5.9405994 1.2592009
0.79479027 -15.979186 2.1781452
-9.7548351 -5.9637699 1.878722
-61.435677 -32.118637 7.090539
1.2770739 -5.9291735 1.2582228
0.75430489 -15.97421 2.1778784
-9.7902107 -5.9476395 1.8809099
-61.703896 -32.064232 7.10988
1.2626746 -5.9442372 1.2569262
0.71559572 -15.992317 2.1721134
-9.8833103 -5.9616146 1.8889616
-62.082245 -32.071381 7.1405988
1.2490356 -5.9541931 1.257899
0.68021536 -15.976713 2.1708753
-9.9320145 -5.9489403 1.8923745
-62.479702 -32.063313 7.1722798
1.2353272 -5.9368362 1.2563955
0.63825941 -15.996683 2.1729095
-10.029346 -5.9628129 1.9007761
-67.195877 -34.201935 7.637958
1.2205698 -5.9554291 1.2581644
0.60101128 -15.987608 2.1722903
-10.103563 -5.9662209 1.9069026
-67.459763 -34.13504 7.6565995
1.2068276 -5.9652839 1.2591374
0.56704664 -15.951365 2.1691947
-10.185618 -5.968936 1.9136412
-67.922241 -34.13932 7.6941442
1.194699 -5.9255061 1.2555995
0.52654791 -15.947742 2.1691062
-10.221162 -5.9514556 1.9158292
-68.301689 -34.117489 7.7239876
1.1803637 -5.9362307 1.2566608
0.48725462 -15.97042 2.171406
-10.305409 -5.9587216 1.9203994
-68.724945 -34.123306 7.7434273
1.1667953 -5.9430771 1.2573683
0.45066881 -15.974675 2.172025
-10.38242 -5.957901 1.9265997
-69.072922 -34.066116 7.7693644
1.1528542 -5.932313 1.2564839
0.40846586 -15.99306 2.1739709
-10.462472 -5.9595432 1.9331496
-69.575928 -34.089378 7.8110209
1.1384687 -5.9351315 1.2568377
0.36922693 -15.991081 2.1740594
-10.509857 -5.9481616 1.9365554
-69.97715 -34.078743 7.8431587
1.1242342 -5.9496341 1.2582529
0.33468246 -15.967915 2.1722019
-10.619083 -5.962822 1.9459872
-70.415993 -34.067131 7.8783531
1.1115212 -5.9310541 1.2566608
0.29376745 -15.98708 2.1742363
-10.608599 -5.9210048 1.943542
-70.806747 -34.030907 7.9087439
0.25421238 -15.988692 2.1746786
-10.615429 -5.8901987 1.9429307
1.0774243 -6.0101786 1.2640905
0.21765184 -15.990466 2.1751208
-10.687394 -5.8852177 1.9486072
1.0684476 -5.9429083 1.2591662
0.17933416 -15.960479 2.1757512
-10.788399 -5.8960304 1.9572527
1.0645883 -5.8351507 1.2494162
0.14060497 -15.969688 2.1769035
-10.893408 -5.9095974 1.9663353
-78.493942 -36.690147 8.6355085
0.10332966 -15.978945 2.1780558
-11.130454 -5.9780207 1.9882553
-76.623169 -35.594379 8.4418964
1.0283136 -5.9274793 1.2581025
0.068744183 -15.912168 2.1722944
-11.263023 -6.0010824 1.9999576
-76.646439 -35.379456 8.4358711
1.0120134 -5.9542294 1.260673
0.027751446 -15.944332 2.1755741
-11.321507 -5.9918661 2.0044112
-79.168503 -36.289749 8.6759424
0.99934816 -5.9490576 1.2603185
-0.010629654 -15.963963 2.1777012
-11.442123 -6.0055084 2.0148036
-76.583405 -34.893105 8.4129028
0.9871769 -5.9233742 1.2581025
-0.04882288 -15.936599 2.1755741
-11.586826 -6.0321064 2.0262675
0.97191095 -5.9383993 1.2596093
-0.088496208 -15.952981 2.1774354
-11.62147 -6.0112791 2.0283611
0.96088004 -5.9186349 1.2579253
-0.12235689 -15.928816 2.1755741
-11.671118 -5.9923496 2.0317633
-78.00827 -34.833706 8.519516
-0.16575384 -15.950478 2.1779671
-11.773232 -5.9988804 2.0403998
-78.0186 -34.611729 8.5124493
0.9302578 -5.9377489 1.259964
-0.20035362 -15.920177 2.1755741
-11.91389 -6.0214481 2.0527875
0.91535735 -5.9477901 1.2610276
-0.23839426 -15.920719 2.1760173
-11.959541 -6.0012717 2.055841
-80.71077 -35.298424 8.7586336
-0.28240156 -15.958654 2.1799171
-12.06967 -6.0081973 2.0651753
-72.534576 -31.596371 7.9538689
-0.31366777 -15.889296 2.1739786
-12.134879 -5.9987626 2.070235
0.8724122 -5.9563751 1.2622684
-0.35076809 -15.89457 2.174865
-12.165859 -5.9701228 2.0718052
0.86208677 -5.9198093 1.2590775
-0.38948393 -15.876033 2.173624
-12.181317 -5.9380326 2.0719798
0.85326791 -5.8814368 1.2557094
-0.4283433 -15.882866 2.1746876
-12.183567 -5.9020276 2.0709329
0.83572459 -5.915452 1.2589889
-0.46600294 -15.891726 2.1759286
-12.391705 -5.9456697 2.089689
-79.943832 -33.568195 8.6353664
0.81947017 -5.9260626 1.2601411
-0.50422716 -15.87001 2.1744218
-12.549496 -5.970849 2.103647
0.80371857 -5.9406271 1.2616479
-0.54498434 -15.890049 2.1767263
-12.633212 -5.9669275 2.1075237
-0.58342266 -15.903443 2.1784103
-12.652468 -5.9320602 2.107959
0.77347684 -5.9551063 1.2633321
-0.62047434 -15.873737 2.1761944
-12.788054 -5.946579 2.1197109
0.7608397 -5.9464388 1.2627116
-0.65812063 -15.870366 2.1763718
-12.71879 -5.8811088 2.1117892
-0.68699455 -15.817074 2.1719398
-12.838354 -5.8853927 2.121887
0.73200321 -5.9501057 1.2634207
-0.66271591 -15.375365 2.1317878
-12.972367 -5.8978696 2.1334648
0.71103644 -5.9971256 1.2679411
-0.70496702 -15.410358 2.1355104
-13.237528 -5.9619932 2.157665
0.69700217 -6.0009003 1.2684729
-0.76063299 -15.541597 2.1480968
-13.283131 -5.9356008 2.1606247
-98.843193 -38.757698 10.36203
0.69126821 -5.9402442 1.2603202
-0.84758711 -15.840822 2.1686456
-13.465412 -5.962697 2.1767292
0.6739738 -5.9582076 1.2621717
-0.89319944 -15.877976 2.1726131
-13.551292 -5.9557066 2.1836932
0.66060233 -5.9580488 1.2623481
-0.92615747 -15.854018 2.170938
-13.646507 -5.9485188 2.1914406
-0.97028923 -15.880383 2.1739357
-13.801024 -5.9629583 2.2048466
0.62833571 -5.977427 1.2645524
-1.0017071 -15.828901 2.1697917
-13.848787 -5.940495 2.2081544
-105.27556 -39.751957 10.932126
0.61200857 -5.9944258 1.2663157
-1.043756 -15.860347 2.1732304
-13.995863 -5.9492521 2.2207768
-1.0845695 -15.856402 2.1734948
-14.09694 -5.9438844 2.232322
-1.1149359 -15.809742 2.1697917
-14.178595 -5.932723 2.2388649
0.57089877 -5.9844122 1.2660512
-1.1498218 -15.798731 2.1693509
-14.309516 -5.9337492 2.249944
0.5583508 -5.9693565 1.264905
-1.1973152 -15.832809 2.1731422
-14.445873 -5.9394808 2.2616336
0.5530076 -5.9209714 1.2606728
-1.2352757 -15.829958 2.1734948
-14.530447 -5.9279876 2.2684383
0.53478241 -5.9473147 1.2633179
-1.2698236 -15.816762 2.1728776
-14.538652 -5.8841529 2.2678275
0.51195383 -5.9886017 1.2673738
-1.3121624 -15.820831 2.1739357
-14.57415 -5.8532972 2.2699213
-1.3492241 -15.81292 2.1738474
-14.682611 -5.8492389 2.2789938
0.49572444 -5.9280014 1.2639136
-1.3805156 -15.782825 2.1762707
-14.827715 -5.8519855 2.2913816
0.46340823 -6.0168705 1.2724049
-1.4250607 -15.79805 2.1783934
-15.058981 -5.8849945 2.3119698
0.45228505 -5.9978662 1.2709012
-1.4620547 -15.781944 2.1775973
-15.20739 -5.8924694 2.3247936
-1.5082974 -15.828348 2.1825507
-15.325638 -5.88557 2.3346515
0.42144322 -6.0096006 1.2724934
-1.540349 -15.787251 2.1794548
-15.466112 -5.8854613 2.3466029
0.41200662 -5.9828906 1.270282
-1.5745401 -15.757525 2.1774206
-15.602838 -5.8870597 2.3582926
-1.6218982 -15.807404 2.1827276
-15.79005 -5.9008255 2.3711135
0.38448286 -5.9782214 1.2703705
-1.6532593 -15.764167 2.1794548
-16.015087 -5.9258652 2.3909612
0.3708837 -5.9723911 1.2701051
-1.6952586 -15.77226 2.1809585
-16.217031 -5.9460955 2.4087195
0.35900521 -5.9639068 1.2695744
-1.7132521 -15.681952 2.1732633
-16.397633 -5.9528971 2.4243016
0.3393681 -5.9835658 1.2716973
-1.7617321 -15.713325 2.1769783
-16.464115 -5.926589 2.4292636
0.32134175 -6.0005503 1.2735547
-1.8086786 -15.750898 2.1812239
-16.611727 -5.9272776 2.4418859
0.30923057 -5.9929113 1.2731124
-1.8295856 -15.676605 2.1750324
-16.490707 -5.8382654 2.4291766
0.29402113 -5.9915237 1.2732893
-1.8660345 -15.652564 2.1736171
-16.543089 -5.807065 2.4328325
0.28138447 -5.9838028 1.2717257
-1.8821268 -15.552534 2.162035
-16.789356 -5.8366475 2.4546824
0.2593801 -6.0196929 1.2753445
-1.9146595 -15.533169 2.1609759
-17.129646 -5.8876247 2.4851501
0.23992395 -6.0361772 1.2771981
-1.9447107 -15.483352 2.1571805
-17.347164 -5.903975 2.5042143
0.2314446 -6.0102415 1.2750797
-1.985127 -15.491926 2.1587694
-17.544743 -5.9153347 2.5214503
0.22720528 -5.9692831 1.2715492
-2.0268259 -15.512099 2.1614172
-17.704908 -5.9087481 2.5350304
0.19507837 -6.0386219 1.2783453
-2.0472584 -15.423275 2.1540031
-17.870228 -5.9048634 2.5491326
0.18757844 -6.0068135 1.2756975
-2.0754046 -15.374503 2.150296
-18.063028 -5.9121594 2.5717981
0.1665659 -6.0357394 1.2786984
-2.1218858 -15.414261 2.1547976
-18.153751 -5.8852487 2.5789592
0.15268779 -6.0303316 1.278522
-2.1542435 -15.383289 2.1527674
-18.244461 -5.8579211 2.5861204
0.1400044 -6.0201726 1.277904
-2.1965857 -15.39283 2.1545327
-18.48391 -5.8760757 2.6072543
0.12490034 -6.0244098 1.2786102
-2.2363362 -15.403927 2.1563861
-18.747658 -5.8935905 2.6304841
0.11483192 -6.0017967 1.276845
-2.2692385 -15.369515 2.1540914
-18.936466 -5.893301 2.6468151
0.071581364 -6.1132069 1.287613
-2.3148375 -15.397002 2.1575336
-19.097637 -5.8866854 2.6606133
0.040573835 -6.1775198 1.293968
-2.3454576 -15.372018 2.1560333
-19.293365 -5.8822618 2.6774681
0.062062025 -6.0334172 1.2802465
-19.376324 -5.8509598 2.6839304
-145.46095 -39.609318 14.403344
0.01740098 -6.1463642 1.2911797
-2.4301472 -15.388162 2.1578889
-19.332737 -5.7878828 2.6786907
-2.4797192 -15.43435 2.1630907
-19.56337 -5.790669 2.6987767
0.015867472 -6.0382318 1.2817454
-2.514369 -15.406914 2.1615038
-19.772383 -5.7910008 2.7169414
0.0038609505 -6.0279188 1.2811282
-2.5544519 -15.411152 2.1628263
-20.33515 -5.8836222 2.7679424
-2.5995779 -15.439128 2.166353
-20.687654 -5.9131155 2.7926135
0.0020754337 -5.9255438 1.272223
-2.6268258 -15.385177 2.1622972
-20.884666 -5.9038467 2.8095014
-0.0064749718 -5.9019508 1.2703714
-2.6592121 -15.355938 2.1605339
-21.156181 -5.9168139 2.8333533
-0.014903784 -5.8823972 1.2688726
-21.345867 -5.903636 2.8495448
-0.027261257 -5.8728151 1.2683437
-21.383499 -5.852376 2.851721
-0.053328991 -5.9108653 1.2723112
-21.764084 -5.8886108 2.8855839
-0.066281557 -5.9071121 1.2723112
-22.051983 -5.8936882 2.9107416
-0.083584309 -5.9121866 1.2731929
-22.248112 -5.8803864 2.9275422
-0.10121036 -5.922142 1.2750797
-2.9082665 -15.393269 2.1715674
-22.492073 -5.8797894 2.9487827
-0.14956045 -6.036623 1.2862891
-2.9486008 -15.401559 2.1733327
-22.814531 -5.8888865 2.9770741
-2.9832349 -15.37491 2.1719205
-22.923729 -5.8524513 2.9858663
-3.0293126 -15.396516 2.1750097
-23.001055 -5.810792 2.9917858
-0.18432879 -6.0006886 1.2840825
-3.0560956 -15.359857 2.1725383
-23.501339 -5.8560514 3.0363557
-0.1896379 -5.965467 1.2811699
-3.1028843 -15.372913 2.1749215
-23.938259 -5.8897839 3.0751805
-0.20586991 -5.9695854 1.2819643
-3.1448455 -15.380233 2.1766868
