# .PCD v0.7 - Point Cloud Data file format
VERSION 0.7
FIELDS x y z
SIZE 4 4 4
TYPE F F F
COUNT 1 1 1
WIDTH 1519
HEIGHT 1
VIEWPOINT 0 0 0 1 0 0 0
POINTS 1519
DATA ascii
-9.1011724 -9.5143166 1.276437
-21.205202 -20.060345 1.8862309
3.2017152 -8.4829664 1.0683262
-9.1388197 -9.5022402 1.2772155
-21.31749 -20.062057 1.889493
3.1822367 -8.4878082 1.0683645
-9.1866665 -9.5006275 1.2785499
-21.433928 -20.070648 1.8930514
3.1639018 -8.4943676 1.0684791
-9.2320375 -9.4912987 1.2796247
-21.531796 -20.051197 1.8953867
3.1431823 -8.501339 1.0685936
-9.2943554 -9.4980431 1.2815893
-21.672337 -20.071617 1.899946
3.1156411 -8.4678965 1.0655065
-9.3475657 -9.5003014 1.2831832
-21.779581 -20.07065 1.9030225
3.0976896 -8.4762249 1.0656965
-9.4219866 -9.516655 1.2857409
-21.898937 -20.071739 1.9065068
3.0790162 -8.489603 1.0660765
-9.4651985 -9.5063 1.2867417
-22.025909 -20.078636 1.9103618
3.0571561 -8.4856548 1.0657725
-9.5133877 -9.5035448 1.2880762
-22.130558 -20.073898 1.91329
3.0380988 -8.4880915 1.0657345
-9.5837727 -9.513669 1.2903743
-22.270245 -20.086313 1.9176641
3.015492 -8.4841728 1.0654305
-9.6164494 -9.4957323 1.2908933
-22.370289 -20.072823 1.9202588
2.9938197 -8.4760742 1.0649744
-9.6829605 -9.5074415 1.2889366
-22.468769 -20.061485 1.9139044
2.980556 -8.5120287 1.0662665
-9.7204523 -9.4895401 1.2895987
-22.621778 -20.082907 1.9188704
2.955997 -8.4964046 1.0655065
-9.8060322 -9.5144224 1.2926888
-22.741783 -20.084246 1.9224021
2.9386978 -8.5141401 1.0660765
-9.8500223 -9.5067921 1.2937925
-22.839584 -20.070835 1.9249403
2.916909 -8.4999313 1.0653925
-9.91187 -9.5080004 1.2956318
-22.764099 -19.905195 1.918797
2.8977983 -8.5168743 1.0659245
-9.9545422 -9.4970789 1.296625
-23.073383 -20.058041 1.9314883
2.8778989 -8.5190678 1.0658865
-10.021472 -9.507247 1.2988322
-23.209515 -20.073994 1.9358659
2.8498979 -8.4642048 1.0636064
-10.09499 -9.5168571 1.3012233
-23.34926 -20.080448 1.9401331
2.8292863 -8.4712543 1.0661421
-10.152328 -9.5168676 1.3029156
-23.46629 -20.075951 1.9434807
2.8077531 -8.4617033 1.0656444
-10.211911 -9.5202017 1.3047549
-23.581535 -20.07341 1.9468284
2.7899287 -8.471283 1.0659124
-10.284982 -9.5283546 1.3071091
-23.736378 -20.089706 1.9517946
2.7715423 -8.4937229 1.066678
-10.314983 -9.5042877 1.3074403
-23.874952 -20.096354 1.9560618
2.7471793 -8.4696426 1.0656061
-10.377069 -9.5087595 1.3093899
-23.982946 -20.086369 1.9590416
2.7281957 -8.4713612 1.0655677
-10.430979 -9.5029392 1.3108613
-24.106407 -20.080032 1.9625731
2.7084427 -8.4790535 1.0657592
-10.498036 -9.5069904 1.314413
-24.266253 -20.101105 1.9709537
2.6873417 -8.4770279 1.0655677
-10.563457 -9.5131168 1.3165151
-24.370735 -20.086796 1.9737568
2.6696429 -8.4882803 1.0659124
-10.626976 -9.5119467 1.318396
-24.523684 -20.097155 1.9785881
2.6492791 -8.4978685 1.0661803
-10.720681 -9.5370197 1.321789
-24.650497 -20.094784 1.9823499
2.6320708 -8.5197859 1.066946
-10.737333 -9.5052872 1.3215678
-24.745941 -20.072107 1.9847102
2.6110275 -8.5057468 1.0662951
-10.797148 -9.5004492 1.3232641
-24.905655 -20.085436 1.9898365
2.5887711 -8.5006647 1.0659889
-10.889653 -9.5234232 1.3265834
-25.059464 -20.101418 1.9948521
2.569299 -8.5050182 1.0660654
-10.939149 -9.5157795 1.3279111
-25.203764 -20.11352 1.9994991
2.5477283 -8.4850988 1.0628083
-11.027438 -9.5310345 1.3309352
-26.323252 -20.833563 2.0496929
2.5276132 -8.4972916 1.0631883
-11.072438 -9.5176811 1.3320048
-26.484142 -20.848835 2.05493
2.5072513 -8.4937439 1.0629603
-11.12916 -9.5145969 1.3336644
-26.657467 -20.87653 2.0608308
2.4865079 -8.4793892 1.0623143
-11.194119 -9.5116625 1.3355821
-26.798338 -20.867241 2.0649245
2.464011 -8.4700909 1.0618582
-11.219526 -9.4816418 1.3356929
-26.965832 -20.880684 2.0703459
2.4461746 -8.4965496 1.0628083
-11.255769 -9.4631252 1.3363936
-27.093979 -20.873253 2.0741076
2.4254463 -8.4810715 1.0621243
-11.307379 -9.4517956 1.3331797
-27.270927 -20.891884 2.0697443
2.4042113 -8.4754086 1.0618203
-11.347748 -9.4322386 1.3339849
-27.400951 -20.876116 2.0733678
2.383779 -8.4774599 1.0618203
-11.430914 -9.4466314 1.3368397
-27.546223 -20.878948 2.0778697
2.36623 -8.4929066 1.0623522
-11.465831 -9.4209347 1.337352
-27.697598 -20.872822 2.0823712
2.3441429 -8.4861937 1.0620103
-11.552462 -9.4351797 1.3403167
-27.844379 -20.871117 2.0868363
2.3243821 -8.487052 1.0619723
-11.610353 -9.430768 1.3420002
-27.958942 -20.850422 2.0899107
2.3060169 -8.4945946 1.0622003
-11.663719 -9.4173298 1.3433545
2.2844968 -8.4935532 1.0620862
-11.740233 -9.4234161 1.3458431
-28.363911 -20.912336 2.1037087
2.266778 -8.5185766 1.0629983
-11.832055 -9.4415264 1.3490639
-28.492579 -20.899357 2.1074054
2.2480586 -8.5230722 1.0631123
-11.893651 -9.432806 1.3507841
-28.661911 -20.900909 2.1126757
2.226485 -8.5218792 1.0629983
-11.980159 -9.4445314 1.3537121
-28.820234 -20.902601 2.1176167
2.2048535 -8.4991026 1.0620482
-12.112785 -9.4889297 1.3587627
-28.972717 -20.903847 2.1223745
2.1873221 -8.5190287 1.0627702
-12.197357 -9.4944668 1.3615077
-29.149921 -20.908215 2.1279743
2.1645863 -8.5011301 1.0620103
-12.331357 -9.5364895 1.3665586
-29.308796 -20.907942 2.1329153
2.1452191 -8.5073967 1.0622003
-12.368107 -9.5148602 1.3672538
-29.478859 -20.918655 2.1384418
2.125103 -8.4911709 1.0615162
-12.479071 -9.5365448 1.37117
-29.64694 -20.914341 2.1436021
2.1029615 -8.4789448 1.0609841
-12.535572 -9.5236235 1.3726707
-29.794487 -20.89994 2.1479208
2.0835538 -8.4968014 1.0616302
-12.636019 -9.5431547 1.3762207
-29.982267 -20.919872 2.1542161
2.0632417 -8.4745817 1.0607181
-12.686102 -9.5254173 1.3774285
-30.131767 -20.905243 2.158608
2.0435972 -8.4894218 1.0612502
-12.763201 -9.525013 1.3798441
-30.2994 -20.901684 2.1638052
2.022702 -8.4827795 1.0609461
-12.860746 -9.5413275 1.3832479
-30.486206 -20.918369 2.170027
2.0039811 -8.4867201 1.0610602
-12.940584 -9.539896 1.3857366
-30.661957 -20.913967 2.1754804
1.9820044 -8.4732552 1.058917
-13.003103 -9.5309248 1.38753
-30.842167 -20.920258 2.1812997
1.9635749 -8.4995594 1.0599003
-13.077129 -9.5309544 1.3898723
-30.979422 -20.902756 2.1852891
1.9443057 -8.4926414 1.0595977
-13.177003 -9.5410624 1.3932395
-32.38343 -21.671608 2.2452023
1.9242983 -8.5228291 1.0607321
-13.248799 -9.5369415 1.3954355
-32.584236 -21.684233 2.251827
1.9027648 -8.4797754 1.0590305
-13.313978 -9.5303316 1.3973752
-32.780754 -21.697754 2.2583416
1.8845282 -8.4970932 1.0596733
-13.383421 -9.5201464 1.4027543
-32.985924 -21.701952 2.2727578
1.8635676 -8.5066547 1.0600137
-13.480295 -9.5305624 1.4060652
-33.151787 -21.68998 2.2778344
1.8431056 -8.4848995 1.0591439
-13.557295 -9.5302553 1.4085299
-33.368103 -21.712872 2.2852285
1.8247952 -8.5040359 1.0598624
-13.629546 -9.5207014 1.4106635
-33.398552 -21.607201 2.2841249
1.8034508 -8.5027151 1.0597868
-13.749325 -9.5417004 1.4149308
-33.401642 -21.489658 2.2819176
1.7821231 -8.471077 1.0585389
-13.828272 -9.5413713 1.417469
-33.400307 -21.378929 2.2797105
1.76403 -8.5037346 1.0597868
-13.927475 -9.5488358 1.4208167
-33.488823 -21.313427 2.2812922
1.7427928 -8.4690666 1.0584254
-13.978235 -9.5268116 1.4220306
-33.682751 -21.310722 2.2875092
1.7227037 -8.4870625 1.0583191
-14.095139 -9.5479898 1.4262242
-33.865292 -21.309486 2.293395
1.7036455 -8.476656 1.0579042
-14.187181 -9.5477581 1.429204
-34.089352 -21.318142 2.3008258
1.6825185 -8.4838028 1.0581682
-14.278383 -9.5506363 1.4322205
-34.298714 -21.326221 2.3077786
1.662909 -8.488925 1.0583569
-14.382279 -9.5625401 1.4358256
-34.492821 -21.328993 2.3141427
1.6439939 -8.486187 1.0582438
-14.531168 -9.5939388 1.4412699
-34.582684 -21.256289 2.3156877
1.6228857 -8.5078163 1.0590736
-14.575471 -9.5681286 1.4422264
-35.023186 -21.395416 2.3326831
1.6031871 -8.513772 1.0592999
-14.645308 -9.5589256 1.437168
-35.212681 -21.392349 2.3225348
1.5842159 -8.4982109 1.0586964
-14.72186 -9.5470705 1.4394256
-35.994957 -21.713346 2.3538129
1.5629365 -8.5030966 1.058885
-14.791592 -9.5351143 1.4414647
-36.146381 -21.680275 2.3581095
1.5433588 -8.4640198 1.0573761
-14.787421 -9.4831266 1.4403722
-36.486923 -21.758347 2.370599
1.5243995 -8.4863787 1.0582438
-14.943105 -9.5150013 1.4460163
-36.602859 -21.693832 2.3731842
1.5030513 -8.4989147 1.0587341
-15.058136 -9.5253448 1.4499488
-36.873398 -21.720139 2.3824694
1.4825211 -8.5026236 1.058885
-15.172356 -9.5409222 1.4539541
-37.046013 -21.705132 2.3878222
1.464427 -8.4994812 1.0587718
-15.213421 -9.5071058 1.4546824
-37.300415 -21.715214 2.3963063
1.4429536 -8.5118313 1.0600514
-15.319395 -9.5109329 1.4582144
-37.513725 -21.70624 2.4031153
1.4231908 -8.469533 1.0584254
-15.464821 -9.5400028 1.4634942
-37.703423 -21.6931 2.4090869
1.4034534 -8.513073 1.0601271
-15.533363 -9.5223083 1.4654241
-39.414322 -22.495731 2.4794719
1.383131 -8.5038509 1.0597868
-15.579597 -9.4922733 1.4664072
-38.232288 -21.725399 2.4270017
1.3626068 -8.5043316 1.0598246
-15.578454 -9.4408817 1.4654604
-39.912514 -22.509762 2.4960761
1.3437634 -8.5009031 1.0597112
-15.77953 -9.49123 1.4729614
-40.155945 -22.501673 2.5039411
1.3223357 -8.5051651 1.0599003
-15.908572 -9.5064764 1.4755841
-40.381699 -22.493267 2.506675
1.3036082 -8.4743099 1.058728
-15.936722 -9.4699802 1.4758747
-40.623505 -22.497433 2.5147014
1.2832875 -8.5156078 1.060354
-16.077194 -9.4859276 1.4807777
-40.905647 -22.506088 2.5241444
1.2620428 -8.5128851 1.0602784
-16.137342 -9.4635563 1.4823757
1.2426996 -8.5023708 1.0599003
-16.253788 -9.4722939 1.4863708
1.2225864 -8.5298662 1.0609969
-16.37389 -9.4758453 1.4904022
-41.754616 -22.550716 2.5529451
1.2025857 -8.4987164 1.0598246
-16.481064 -9.4765053 1.4939615
-41.846149 -22.466492 2.5545433
1.1835325 -8.4841633 1.0592952
-16.560501 -9.4647141 1.4963949
1.164988 -8.4765186 1.0566701
-16.68442 -9.4685307 1.5005715
-42.482796 -22.521582 2.5765886
1.1432636 -8.4851847 1.0570455
-16.813702 -9.4765921 1.5050024
-42.782288 -22.534561 2.5867579
1.1233971 -8.4733744 1.0566325
-16.921289 -9.4775715 1.5085979
-43.056023 -22.543829 2.5960193
1.1048224 -8.4674511 1.0564449
-17.030743 -9.4745426 1.5121934
-44.265076 -23.005802 2.64396
1.0835452 -8.480875 1.0570078
-17.18055 -9.4909019 1.5174598
-43.8955 -22.681183 2.6262729
1.0621991 -8.4942446 1.0575709
-17.267456 -9.4800844 1.5201836
-44.076637 -22.640251 2.6316481
1.0424852 -8.5057125 1.0580589
-17.412321 -9.4904346 1.5251956
-44.93877 -22.914387 2.6649523
1.020282 -8.5179472 1.0585843
-17.566128 -9.5088615 1.5306435
-45.244102 -22.924686 2.6753395
1.003505 -8.4737682 1.0569328
-17.708694 -9.523365 1.5356555
-45.537033 -22.933084 2.6852908
0.98325896 -8.4919081 1.0576835
-17.788078 -9.5000849 1.5379436
0.96019816 -8.5146885 1.0586219
-17.858652 -9.4768238 1.5399411
-47.018078 -23.349253 2.741694
0.94180369 -8.4956865 1.0579462
-18.12331 -9.5473461 1.549965
-47.274879 -23.333872 2.7500837
0.92151928 -8.5117283 1.0586219
-18.264778 -9.5516357 1.5547955
-47.619759 -23.341492 2.7618146
0.9014802 -8.4944563 1.0580213
-18.409033 -9.5611362 1.5598074
-47.938469 -23.346642 2.7726376
0.87926269 -8.5229731 1.0591849
-18.547245 -9.5694637 1.5646015
-48.232254 -23.344496 2.7825162
0.8615551 -8.5067759 1.0586219
-18.650171 -9.5538254 1.5678339
-48.525833 -23.32345 2.7921045
0.84138393 -8.4922762 1.0581338
-18.771774 -9.5509491 1.5719016
-48.876442 -23.338737 2.8041985
0.81948495 -8.5147972 1.0590723
-18.867722 -9.535821 1.5749161
-50.877739 -24.103531 2.8837731
0.79993081 -8.5110292 1.0589972
-19.037518 -9.5512838 1.5809087
-51.304279 -24.138859 2.8987727
0.781564 -8.4867411 1.0581338
-19.180813 -9.5539694 1.5858117
-51.620041 -24.122232 2.9092326
0.76034164 -8.4925165 1.0584342
-19.326321 -9.561718 1.5821025
-51.997284 -24.143812 2.8998659
0.74075985 -8.4974251 1.058697
-19.464542 -9.560729 1.5867394
-52.382301 -24.154686 2.9129856
0.72057962 -8.4924183 1.0585843
-19.622543 -9.5677643 1.5921671
-52.720375 -24.142942 2.9242003
0.69805193 -8.5096798 1.059335
-19.736 -9.5593729 1.5958693
-53.040726 -24.134258 2.9348757
0.68079996 -8.4921274 1.0587344
-19.869213 -9.551753 1.6002545
-53.424576 -24.132942 2.9478159
0.65954471 -8.4897957 1.0587344
-20.02673 -9.5588474 1.6056821
-53.811371 -24.143501 2.9610436
0.64019847 -8.4846783 1.0586219
-20.123421 -9.5415459 1.6087015
-54.189064 -24.154608 2.9739835
0.61796188 -8.5115347 1.0613369
-20.335938 -9.5657768 1.6162499
-54.595524 -24.15715 2.9877863
0.59768915 -8.5003176 1.0609974
-20.498402 -9.5726662 1.6218573
-55.013958 -24.175419 3.0022359
0.57939291 -8.4863367 1.0605447
-20.562967 -9.5401115 1.6235826
-55.335144 -24.157198 3.0128756
0.55633736 -8.51793 1.0618651
-20.710316 -9.5343933 1.628507
-56.727951 -24.565434 3.0660017
0.53562427 -8.5104351 1.0616764
-20.804615 -9.5109625 1.6313826
0.51838231 -8.4885712 1.0609219
-20.883608 -9.4833393 1.633683
-58.574078 -25.004999 3.135015
0.49823332 -8.4958038 1.0612992
-21.086365 -9.4984446 1.6384578
-58.961555 -24.981636 3.141618
0.47091269 -8.5384617 1.0630721
-21.249498 -9.4989395 1.6440147
-59.385616 -24.977955 3.1559944
0.4525609 -8.5192547 1.0624309
-21.462589 -9.5238733 1.6516151
-59.776321 -24.972391 3.1692233
0.43494058 -8.5069923 1.0620537
-21.721188 -9.5608387 1.6609364
-60.238205 -24.979816 3.1850696
0.41321278 -8.5128326 1.0623932
-21.921162 -9.5731411 1.6679273
-60.685982 -24.979317 3.2003419
0.39518309 -8.4925327 1.0617142
-22.095039 -9.5793629 1.6739503
-63.073769 -25.756317 3.2924073
0.37038612 -8.5303631 1.0632985
-22.265392 -9.5754986 1.6797223
-63.607529 -25.772345 3.3108706
0.34903312 -8.5272274 1.0632985
-1.0602436 -18.038275 1.4349753
-22.448648 -9.5810699 1.6860679
-64.061417 -25.768997 3.3263583
0.32955003 -8.5224056 1.0616246
-22.631176 -9.5881329 1.6924136
-64.535057 -25.778399 3.3427062
0.31058741 -8.5195274 1.0616246
-1.1435146 -18.024885 1.4314954
-22.797405 -9.5800676 1.6980064
-65.05925 -25.783033 3.3607392
0.29301357 -8.4921303 1.0606863
-22.994804 -9.588397 1.7048898
-65.599998 -25.805983 3.3795969
0.26967669 -8.5121765 1.0615871
-1.2340803 -18.024624 1.4320209
-23.155884 -9.5847445 1.7103748
-66.009155 -25.783966 3.3933637
0.25104666 -8.5072336 1.0615121
-1.2690287 -17.981508 1.4305946
-23.365444 -9.5903902 1.7176527
-66.537369 -25.782463 3.4115043
0.22535539 -8.530756 1.0625631
-1.319869 -18.004917 1.4317956
-23.550545 -9.5913124 1.7240341
-67.070282 -25.794962 3.4300034
0.20988631 -8.5015125 1.0615497
-1.3593159 -17.979645 1.4310825
-23.752197 -9.6002197 1.7336807
-67.589035 -25.807186 3.4551015
0.19048691 -8.5012455 1.0616622
-1.407793 -18.019051 1.4328842
-23.948551 -9.597928 1.7404383
0.17183542 -8.482254 1.0610616
-1.4451704 -17.961258 1.4309323
-23.938751 -9.5223808 1.7391443
-70.970772 -26.639496 3.5825968
0.14057064 -8.5412407 1.0635014
-1.4965601 -17.995991 1.4325838
-24.260136 -9.5722065 1.7508981
-71.383736 -26.599968 3.5963995
0.12055254 -8.5436935 1.0637267
-1.5411978 -18.010992 1.4334471
-24.498245 -9.5849695 1.7593093
-71.999451 -26.615427 3.6179302
0.10406375 -8.5169945 1.0628258
-1.586071 -18.007021 1.4335973
-24.692444 -9.5809021 1.765995
-72.516388 -26.592653 3.6355791
0.083188295 -8.515233 1.0629009
-1.63025 -17.999096 1.4335973
-24.926403 -9.5956125 1.7742982
-75.332825 -27.395435 3.743233
0.07004118 -8.4801111 1.0616622
-1.6689053 -17.980165 1.433147
-25.025131 -9.5560999 1.7772455
-76.034828 -27.426073 3.7679987
0.038723946 -8.5349607 1.0615369
-1.72089 -18.014446 1.4296105
-25.164383 -9.5302496 1.7817745
-76.671082 -27.430317 3.7901766
0.019052982 -8.5263214 1.0613507
-1.7656279 -18.009062 1.4297223
-25.349874 -9.5254564 1.7881727
-77.2565 -27.430754 3.8105571
0.0024571419 -8.5102654 1.0608664
-1.8086071 -18.01284 1.4301693
-25.58708 -9.5288124 1.7964759
-77.897232 -27.421911 3.8327708
-0.019953966 -8.5119267 1.0610899
-1.859129 -18.027985 1.4311006
-25.837494 -9.5412645 1.8053541
-78.597916 -27.44725 3.8575008
-0.034056425 -8.4793587 1.0599723
-1.9010963 -18.01684 1.4309889
-26.068731 -9.5489874 1.8135135
-0.056712627 -8.4947891 1.0607173
-1.9371567 -17.984873 1.4300575
-26.354656 -9.5649996 1.8236859
-0.084506035 -8.523077 1.0619839
-1.9818249 -17.969992 1.429834
-26.584932 -9.5670652 1.8431304
-0.098619938 -8.491353 1.0609035
-2.0325747 -18.002542 1.4314359
-26.861235 -9.5861635 1.8531182
-0.11947703 -8.4970484 1.0612762
-2.077672 -18.015234 1.4322555
-26.989218 -9.5465107 1.8571858
-0.14372921 -8.5069733 1.0618349
-2.1259604 -18.017195 1.4327025
-27.314125 -9.5759783 1.8690257
-0.16827726 -8.5257559 1.0627291
-2.168664 -18.009237 1.4327399
-27.571537 -9.5852804 1.8782508
-0.19091177 -8.5389109 1.0633997
-2.2127066 -18.015854 1.433336
-27.822525 -9.5820456 1.8871126
-90.014648 -29.347858 4.3157511
-0.21455169 -8.5448141 1.0638094
-2.279624 -18.103292 1.4371359
-28.10165 -9.5895052 1.8971002
-91.978233 -29.715492 4.3895507
-0.23598266 -8.5441513 1.0639584
-2.3911629 -18.400608 1.4491317
-28.313999 -9.5809898 1.9045455
-0.2602396 -8.5637007 1.06733
-2.4416513 -18.431263 1.4560432
-28.663414 -9.6076584 1.9172571
-0.26831603 -8.502924 1.0651155
-2.4821987 -18.400253 1.4552176
-28.980497 -9.622613 1.9286976
-88.170593 -27.798983 4.2330532
-0.3038857 -8.5649376 1.0677428
-2.5310183 -18.406275 1.4558556
-29.16441 -9.6018648 1.9350171
-88.204788 -27.583712 4.2319274
-0.32533765 -8.5710649 1.0681558
-2.5822887 -18.438644 1.4575071
-29.291275 -9.5533953 1.9390121
-0.34547377 -8.5604239 1.0679306
-2.6211395 -18.392656 1.4561183
-29.53693 -9.5463419 1.9476924
-89.973289 -27.624607 4.2953763
-0.38710308 -8.6489239 1.071609
-2.6689873 -18.401558 1.4568691
-29.803352 -9.5475512 1.9572079
-0.39917111 -8.6140079 1.0704079
-2.7185307 -18.424994 1.4581828
-30.022125 -9.5236588 1.9363532
-0.4198308 -8.6050835 1.0702578
-2.7654877 -18.413828 1.4581828
-30.440601 -9.5634327 1.9513597
-0.41731405 -8.5073299 1.0665793
-2.8087111 -18.402433 1.4581453
-30.838861 -9.5986748 1.9656215
-0.48067307 -8.6847506 1.073786
-2.8596554 -18.430227 1.4596467
-31.22044 -9.6170769 1.9791381
-35.399715 -10.811976 2.1371515
-0.4668746 -8.5354061 1.0680807
-2.9113026 -18.437645 1.4603975
-31.55452 -9.6268797 1.9909163
-35.40144 -10.716788 2.1362646
-0.54214954 -8.7530041 1.0769014
-2.9517403 -18.414539 1.4599094
-31.804317 -9.6148539 1.9995372
-35.412262 -10.628096 2.1357679
-0.57093477 -8.7850246 1.0783653
-2.9970312 -18.41828 1.4604725
-32.15564 -9.6195211 2.011883
-0.59655643 -8.7936373 1.0789284
-3.0439692 -18.406395 1.4604725
-32.440498 -9.6110716 2.0217812
-0.5508666 -8.5314121 1.067085
-3.0993452 -18.441723 1.4587159
-32.795174 -9.6203213 2.0343044
-0.81569409 -9.4698725 1.1043957
-3.1357498 -18.403086 1.4576328
-33.118954 -9.6159496 2.0456214
-0.84379601 -9.483716 1.10518
-3.1932936 -18.438492 1.4595002
-33.297733 -9.5711765 2.051475
-0.87123108 -9.494647 1.1058522
-3.2350445 -18.413353 1.4589773
-33.689812 -9.5892916 2.0654175
-0.88965416 -9.4786329 1.1054415
-3.2833128 -18.426756 1.4599483
-33.999886 -9.5731249 2.0761669
-0.90734673 -9.4496231 1.1045451
-3.3287439 -18.408478 1.4597242
-34.433956 -9.5949154 2.0916348
-0.93702459 -9.4719 1.1056656
-3.3809147 -18.42869 1.4609941
-34.919849 -9.6316576 2.1235218
-0.95428395 -9.451992 1.1051054
-3.4190359 -18.404076 1.4604712
-35.383774 -9.6492186 2.1401925
-0.98821568 -9.48209 1.1065619
-3.4729948 -18.416483 1.4614797
-35.779037 -9.6546717 2.1543176
-1.012902 -9.4853249 1.1069354
-3.5240993 -18.431587 1.4625628
-36.105461 -9.6448908 2.1658618
-1.0263662 -9.4521255 1.1058522
-3.5610676 -18.402916 1.4618905
-36.406307 -9.6157207 2.1763303
-1.0267572 -9.3637447 1.102603
-3.6208429 -18.434605 1.4636831
-36.878006 -9.6345291 2.1933236
-1.022819 -9.2684202 1.0990549
-3.6705647 -18.443672 1.4645422
-37.300732 -9.6431608 2.2084885
-1.02496 -9.1987486 1.0956247
-3.7088189 -18.419449 1.4622453
-37.656158 -9.6218157 2.2210004
-1.1267304 -9.4597683 1.1062795
-3.7609859 -18.42351 1.4629532
-37.95866 -9.5941439 2.2315767
-1.1631503 -9.5019274 1.1082168
-3.8088965 -18.425648 1.4635493
-38.353481 -9.5906887 2.245666
-1.1779332 -9.4741077 1.1073599
-3.8570652 -18.434725 1.4644061
-39.019295 -9.6359186 2.2698655
-1.200315 -9.4622889 1.1071736
-3.8967113 -18.396322 1.4634376
-39.26136 -9.5848732 2.2781112
-1.2223427 -9.4525518 1.1070619
-3.9529409 -18.419043 1.4648905
-39.966137 -9.6456757 2.3038521
-1.2408638 -9.4377031 1.1067265
-3.9920874 -18.39789 1.4645551
-40.494461 -9.6552029 2.3145967
-1.2723458 -9.4586306 1.1078441
-4.0392551 -18.390493 1.4648159
-40.940849 -9.6439743 2.3304315
-1.3007483 -9.4692116 1.108552
-4.1015549 -18.431404 1.4670138
-41.505772 -9.6650734 2.3507597
-1.328043 -9.4821243 1.1093343
-4.1435995 -18.419233 1.4670511
-42.010765 -9.6574821 2.3687344
-1.3497849 -9.4680796 1.1090735
-4.1861029 -18.39043 1.4664924
-42.228828 -9.5948715 2.3760455
-1.3768635 -9.4768505 1.1097069
-4.2434936 -18.420256 1.4682434
-42.992142 -9.6507645 2.4037564
-1.4091172 -9.5043993 1.1110853
-4.2882195 -18.416115 1.4686159
-43.573311 -9.6515503 2.4245484
-1.4329865 -9.4966545 1.1110853
-4.3475456 -18.438927 1.4701433
-43.9618 -9.6187897 2.4382076
-1.4544489 -9.4875402 1.11194
-4.3910313 -18.424622 1.4719744
-44.475731 -9.6143055 2.4565744
-1.4759345 -9.4814806 1.1119773
-4.4303122 -18.403444 1.4716756
-45.206894 -9.6371574 2.4829299
-1.4985073 -9.4698601 1.111828
-4.4886456 -18.422094 1.4730575
-45.942421 -9.6665249 2.5094995
-1.5376511 -9.5133419 1.1138821
-4.5430102 -18.439888 1.4743648
-46.535702 -9.6692734 2.530791
-1.5488575 -9.476593 1.112687
-4.5822721 -18.418377 1.4740659
-47.241188 -9.6764507 2.5561481
-1.5833936 -9.499877 1.1139568
-4.634891 -18.419008 1.4747381
-47.888599 -9.6738243 2.5793653
-1.6009576 -9.4763031 1.1133219
-4.6839066 -18.414553 1.4751863
-48.288017 -9.6312218 2.5934167
-1.6128216 -9.4422474 1.1122388
-4.7256179 -18.400112 1.4751863
-49.220856 -9.6758995 2.6272261
-1.6433935 -9.4563875 1.1131351
-4.7827039 -18.418436 1.4765682
-49.880638 -9.6658897 2.6508713
-1.6838036 -9.4980354 1.1151519
-4.8369951 -18.428307 1.4776139
-50.488937 -9.6536045 2.6726618
-1.7076221 -9.4978771 1.1154507
-4.8934541 -18.454887 1.4792945
-51.3144 -9.6615887 2.7024055
-1.725544 -9.4728241 1.1147785
-4.9332333 -18.417883 1.4784729
-52.254753 -9.6960621 2.7364645
-57.2146 -10.566809 2.92049
-1.7502217 -9.4722395 1.1150773
-4.9886265 -18.435282 1.4798175
-53.009079 -9.6991863 2.7636402
-57.388184 -10.457592 2.9260535
-1.7887168 -9.5122566 1.1170193
-5.0350561 -18.432978 1.4803404
-53.912628 -9.7079277 2.796237
-1.8055844 -9.4843903 1.113415
-5.08109 -18.413267 1.4746728
-54.448097 -9.6612225 2.8152459
-1.831696 -9.4872551 1.1138599
-5.1312995 -18.415577 1.4754143
-55.500732 -9.7032528 2.853442
-1.863766 -9.508667 1.115046
-5.1944571 -18.457727 1.4777495
-56.388027 -9.6963043 2.8853967
-1.8886724 -9.5024862 1.1151572
-5.2373762 -18.429188 1.4773047
-57.183266 -9.6815529 2.9139991
-1.9152522 -9.5060339 1.1156391
-5.2943106 -18.448418 1.4787502
-57.876663 -9.6527328 2.9388568
-1.9371667 -9.4998131 1.1157132
-5.3364458 -18.433487 1.4787873
-59.221905 -9.7044411 2.9877162
-1.9599733 -9.4879665 1.115602
-5.3893542 -18.431034 1.4794176
-60.350422 -9.7281532 3.0406258
-1.9880106 -9.4949522 1.1162322
-5.4356527 -18.421581 1.479714
-60.804382 -9.6509209 3.0566871
-2.008852 -9.4858284 1.1161951
-5.4922323 -18.443609 1.4812708
-62.223457 -9.6961441 3.1084917
-2.03089 -9.4719877 1.1160097
-5.5463486 -18.443438 1.4820123
-63.325512 -9.6942215 3.1485374
-2.0627503 -9.485673 1.1169364
-5.6034269 -18.455593 1.4832354
-63.848442 -9.6167793 3.1671441
-2.0950947 -9.5054007 1.1180855
-5.63622 -18.416365 1.4823087
-65.760864 -9.719553 3.2372327
-2.1061132 -9.4663353 1.1168623
-5.6941004 -18.430054 1.4836061
-66.613701 -9.6663628 3.2679927
-2.1333799 -9.4680023 1.1173072
-5.7447948 -18.425463 1.4841621
-2.1724942 -9.5037613 1.1191235
-5.8023076 -18.447462 1.4857559
-69.611313 -9.7261829 3.3774099
-2.1863873 -9.4696512 1.1181226
-5.8415565 -18.409346 1.4849775
-2.2032022 -9.4479847 1.1176037
-5.9039335 -18.437548 1.486868
-71.752594 -9.6611519 3.4550991
-2.2519319 -9.50599 1.1203467
-5.9613848 -18.458164 1.4884248
-72.715935 -9.5895309 3.4898746
-2.2641492 -9.4681454 1.1191976
-6.0136786 -18.451212 1.4889438
-2.3148928 -9.5272999 1.1220146
-6.0693078 -18.461769 1.4901299
-75.795319 -9.6079502 3.6022315
-2.3114531 -9.4599133 1.1196053
-6.116827 -18.457624 1.4906859
-2.3562386 -9.4992113 1.121644
-6.178771 -18.472675 1.4921315
-78.858231 -9.5720978 3.6749725
-2.3848629 -9.5050182 1.1222742
-6.2162008 -18.439699 1.4915385
-2.38868 -9.4555712 1.1206062
-6.2459788 -18.393955 1.4903893
-81.701187 -9.4894562 3.7770529
-2.4236991 -9.4712448 1.1216811
-6.3181272 -18.431835 1.4927988
-2.4481635 -9.4648342 1.1218293
-6.3700004 -18.427311 1.4934289
-84.856812 -9.4206314 3.8905268
-2.4960294 -9.5162935 1.1243498
-6.4247146 -18.438465 1.4946522
-2.517884 -9.5035181 1.1223041
-6.4917641 -18.467674 1.4928761
-2.5492158 -9.5120106 1.1230786
-6.5275316 -18.426132 1.491991
-90.813568 -9.3728294 4.1051965
-2.563252 -9.4864817 1.1224148
-6.5680647 -18.404778 1.4918804
-2.626071 -9.5619993 1.1259921
-6.6270175 -18.410324 1.4929867
-93.916672 -9.1990204 4.2165828
-2.7020645 -9.6700459 1.1308972
-6.6938939 -18.442139 1.4951258
-2.652163 -9.5040274 1.1244063
-6.7466316 -18.447031 1.4961216
-97.066086 -9.008091 4.3296676
-126.85406 -11.652893 5.4139142
-2.6515145 -9.439889 1.1221935
-2.6664762 -9.4146919 1.1215665
-100.1799 -8.8031845 4.4219074
-2.6986275 -9.4287949 1.1225623
-6.911386 -18.455803 1.4990351
-2.7521744 -9.4813032 1.1252177
-6.9721031 -18.462933 1.5002521
-103.24015 -8.5346375 4.5311203
-2.787981 -9.5000296 1.1264347
-7.0219173 -18.455639 1.5008054
-2.7953541 -9.4608927 1.1252177
-7.0658112 -18.440222 1.5009897
-106.25269 -8.2426376 4.6386442
-157.40715 -12.034096 6.4885483
-2.8372259 -9.4874077 1.1268035
-7.1448193 -18.484699 1.5037926
-106.24329 -7.9822655 4.6376238
-2.8681762 -9.4952774 1.127578
-7.1744528 -18.434744 1.5025756
-2.9038391 -9.5126448 1.1307255
-7.2429895 -18.465408 1.5086265
-2.9204226 -9.4883051 1.1301695
-7.2912884 -18.449518 1.508886
-2.9399233 -9.4700718 1.1298729
-7.3335443 -18.421242 1.5086265
-2.9861143 -9.5104198 1.1320229
-7.4037752 -18.458454 1.5110729
-3.0160732 -9.5108271 1.1325418
-7.4555798 -18.444775 1.5114807
-3.0346944 -9.4928217 1.1322453
-7.5060744 -18.437054 1.5120738
-3.0431685 -9.4569159 1.1311703
-7.5618567 -18.444019 1.5132599
-3.0981932 -9.5067616 1.1338021
-7.6335211 -18.469076 1.5153357
-3.1101131 -9.4755421 1.1329496
-7.6881595 -18.468704 1.5162623
-3.1539402 -9.5090466 1.13484
-7.7366576 -18.460379 1.5168183
-3.1840725 -9.5089293 1.1353589
-7.8002257 -18.468321 1.5181899
-3.2160583 -9.5165663 1.1361744
-7.8563671 -18.470066 1.5192277
-3.2580466 -9.5453348 1.1378795
-7.8977461 -18.44746 1.5191907
-3.2661507 -9.5025549 1.1365821
-7.9751129 -18.480793 1.5216742
-3.2933044 -9.5005302 1.1339914
-8.0274658 -18.474455 1.5164618
-3.3250265 -9.509141 1.1348375
-8.0693054 -18.45232 1.5164618
-3.3516591 -9.5016012 1.1350582
-8.138833 -18.469488 1.5182643
-3.3838649 -9.5064964 1.1357939
-8.1919937 -18.459845 1.5188897
-3.3893173 -9.4658756 1.1345432
-8.2300892 -18.43046 1.5185955
-3.4606452 -9.5426645 1.138369
-8.300457 -18.45228 1.520582
-3.4654694 -9.4966955 1.1369343
-8.3677197 -18.467865 1.5223109
-3.4852538 -9.4825144 1.1368239
-8.4161224 -18.456921 1.522826
-3.5118921 -9.4745207 1.1370447
-8.4848604 -18.470295 1.524518
-3.56616 -9.5203094 1.1395462
-8.5303278 -18.449551 1.5246651
-3.5697913 -9.4769468 1.138185
-8.5678244 -18.418594 1.5243342
-3.6241958 -9.5180454 1.1405394
-8.6534901 -18.461185 1.5273138
-3.6367161 -9.4885788 1.1398036
-8.7157736 -18.469755 1.5287485
-3.6631973 -9.4859028 1.1402082
-8.7672482 -18.463003 1.5294843
-3.7131751 -9.5180655 1.1421947
-8.8186436 -18.443806 1.5298153
-3.7683883 -9.5628958 1.1446962
-8.9049673 -18.493294 1.5330526
-3.7667747 -9.5108786 1.1429673
-8.9571056 -18.486877 1.533825
-3.7862368 -9.48944 1.1426363
-8.9860458 -18.428354 1.532464
-3.8313522 -9.5139599 1.1442916
-9.0760956 -18.478632 1.5358115
-3.8383465 -9.4793119 1.1432984
-9.1072969 -18.439968 1.5351493
-3.8770466 -9.4904766 1.144402
-9.1781187 -18.452581 1.5369151
-3.9034817 -9.4827375 1.1446595
-9.2388506 -18.451731 1.5380555
-3.9301527 -9.479331 1.1450641
-9.2921543 -18.446072 1.5389016
-3.9792197 -9.5090752 1.1469771
-9.3580246 -18.453224 1.5404098
-4.021904 -9.5277786 1.1484118
-9.4260168 -18.463503 1.5420653
-4.039113 -9.508213 1.1481174
-9.4972305 -18.486515 1.5441989
-3.5107632 -9.4543819 1.0971289
-8.4148493 -18.410538 1.4438134
-3.5455115 -9.4653645 1.0980235
-8.4762278 -18.419142 1.4450727
-3.5794575 -9.4767227 1.0989182
-8.5345459 -18.425962 1.4462324
-3.5952389 -9.4489794 1.0983548
-8.5815516 -18.399857 1.4462324
-3.6181426 -9.436182 1.0983548
-8.6420183 -18.40185 1.4472928
-3.6617723 -9.4642849 1.0999124
-8.6760836 -18.364798 1.4467627
-3.7054052 -9.4878359 1.1013372
-8.7697954 -18.425072 1.4501095
-3.7284052 -9.4747639 1.1013372
-8.8397055 -18.442591 1.4517996
-3.7530041 -9.4685755 1.1015692
-8.8727951 -18.40345 1.4512031
-3.772939 -9.4481125 1.1013041
-8.9426498 -18.416208 1.4527605
-3.8062174 -9.4548044 1.1020663
-9.004262 -18.422306 1.4539866
-3.8465381 -9.4753962 1.1033586
-9.0740471 -18.446091 1.4558754
6.2933741 -8.4765301 1.0794344
-3.8777943 -9.4740858 1.1038557
-9.1289997 -18.43206 1.4564056
6.2624397 -8.4717875 1.0787361
-3.9017887 -9.4643488 1.1080883
-9.1882591 -18.433138 1.4655585
6.2471385 -8.4906406 1.0790503
-3.9324193 -9.4677858 1.108725
-9.2410049 -18.426907 1.4662958
6.2210178 -8.4886417 1.0785265
-3.9577498 -9.4561377 1.1088254
-9.3079977 -18.432505 1.4676363
6.1968803 -8.4955492 1.078317
-3.9802914 -9.4438028 1.1088591
-9.3630772 -18.425739 1.4684072
6.1466599 -8.4521132 1.0760825
-4.0150199 -9.4536791 1.1097639
-9.4219837 -18.42906 1.4695466
6.1311684 -8.4685879 1.0763268
-4.0646095 -9.4818716 1.111473
-9.4917536 -18.438213 1.4710546
6.1123171 -8.4846344 1.0765015
-4.0740166 -9.447607 1.1106352
-9.5368299 -18.414253 1.471155
6.0827575 -8.47754 1.0757682
-4.1103096 -9.4574594 1.1115735
-9.6058149 -18.429298 1.4728307
6.0495405 -8.4635592 1.0729669
-4.1229954 -9.4267578 1.1109033
-9.6510859 -18.401491 1.4728307
6.0356541 -8.4866982 1.0734531
-4.1674275 -9.4474936 1.1123108
-9.7291775 -18.426672 1.4749753
6.0086842 -8.4857826 1.0729669
-4.1963034 -9.4467955 1.1128135
-9.7885008 -18.428894 1.4761147
5.9800839 -8.4779224 1.0722376
-4.2373266 -9.4614534 1.1139863
-9.856039 -18.436203 1.4775558
5.9485917 -8.4682312 1.0714041
-4.2623396 -9.4503603 1.1141204
-9.9112053 -18.423464 1.4781926
5.934577 -8.4911842 1.0718904
-4.4682226 -9.7289762 1.1259835
-9.9592438 -18.406994 1.4785947
5.9065514 -8.4839439 1.0711957
-4.295783 -9.4039478 1.109224
5.8607984 -8.4484806 1.0693204
-4.4113202 -9.5363092 1.1151224
5.8470778 -8.469986 1.0697719
-4.4543047 -9.5562792 1.1164811
5.8264232 -8.4763384 1.069633
-4.574821 -9.6899252 1.1225121
5.8060851 -8.4890614 1.0697024
-4.5389051 -9.5852613 1.118867
5.7828345 -8.4922409 1.0694246
-4.6735315 -9.7444983 1.1258922
5.7466359 -8.4680033 1.0680702
-4.6235814 -9.615036 1.121286
5.7254262 -8.4787846 1.0680702
-4.6336274 -9.5815353 1.1205239
5.708396 -8.493948 1.0682786
-4.7268629 -9.6754856 1.1249311
5.6776848 -8.4798841 1.067341
-4.729013 -9.6259842 1.1235726
-10.620803 -18.452217 1.4838767
5.6538353 -8.4852448 1.0671326
-4.6772966 -9.4985237 1.1189996
-10.670479 -18.428364 1.4841418
5.6346674 -8.4980221 1.0672368
-4.6892729 -9.4704676 1.1184362
-10.740099 -18.441517 1.4858317
5.6028285 -8.4810743 1.0661949
-4.7313995 -9.4832172 1.119596
-10.810045 -18.447231 1.487323
5.5845146 -8.4954844 1.0663686
-4.7724457 -9.4940796 1.1249782
-10.880486 -18.453279 1.4972942
5.5542212 -8.4852686 1.0655698
-4.7936897 -9.4795609 1.1249782
-10.937775 -18.447227 1.4982326
5.5289674 -8.4812279 1.0650489
-4.835268 -9.4888868 1.1260506
-11.006421 -18.446245 1.4995396
5.4950671 -8.465044 1.064007
-4.8607173 -9.478426 1.1262517
-11.076659 -18.454666 1.5011481
5.4657822 -8.4541616 1.0632083
-4.8980923 -9.4869347 1.1272235
-11.134113 -18.448046 1.5020864
5.4406967 -8.449872 1.0626874
-4.9387574 -9.4942627 1.1282288
-11.199634 -18.441603 1.5031924
5.4216123 -8.4642763 1.062861
-4.9648156 -9.4843273 1.1284634
-11.275755 -18.457348 1.505136
5.4090099 -8.488512 1.0634514
-4.9950495 -9.4821177 1.1289996
-11.331688 -18.447767 1.5059738
5.3757548 -8.4664278 1.0596393
-5.0364413 -9.4898672 1.1300385
-11.410965 -18.459764 1.507884
5.3545508 -8.4762497 1.0596393
-5.0653658 -9.4836388 1.1304406
-11.4574 -18.432674 1.5080516
5.3202457 -8.4533596 1.0583992
-5.0774794 -9.45576 1.1299044
-11.521958 -18.434465 1.509392
5.3058825 -8.4717321 1.0587782
-5.1206956 -9.4655409 1.1310438
-11.606101 -18.452068 1.5115702
5.2911048 -8.4955978 1.0593293
-5.1636953 -9.4765911 1.1322167
-11.658873 -18.429544 1.5120059
5.2622056 -8.4861546 1.0586059
-5.2029853 -9.4878435 1.1333226
-11.72996 -18.443014 1.5138156
5.248085 -8.5031824 1.0589504
-5.2252445 -9.4681797 1.1277462
-11.806063 -18.448298 1.5046785
5.2093592 -8.4734268 1.0574347
-5.2800293 -9.4945402 1.1295636
-11.873951 -18.445654 1.5059671
5.1865597 -8.4771118 1.0572281
-5.2879171 -9.4608097 1.1288036
-11.926805 -18.429674 1.5065949
5.171998 -8.4952421 1.0576069
-5.3458033 -9.4907751 1.1307863
-12.018681 -18.458723 1.5092385
5.1367044 -8.4701891 1.0562979
-5.3804979 -9.4892464 1.1314471
-12.089739 -18.45929 1.5106924
5.1193752 -8.4862185 1.0565735
-5.3952785 -9.4647455 1.1310837
-12.150355 -18.452877 1.5117497
5.0893106 -8.4683571 1.0555745
-5.4591084 -9.4997463 1.1333306
-12.22978 -18.460239 1.5135672
5.0700178 -8.481925 1.0557468
-5.4930539 -9.4985228 1.1339915
-12.286364 -18.444315 1.5142941
5.0476823 -8.4839973 1.0555056
-5.5379872 -9.513382 1.1353133
-12.371994 -18.469904 1.5167394
5.024251 -8.4811821 1.0550923
-5.555397 -9.4865446 1.1349498
-12.42207 -18.437735 1.5169046
4.9996214 -8.4819889 1.0547823
-5.5953827 -9.4927311 1.1359411
-12.499578 -18.448309 1.5187881
4.9747124 -8.4775639 1.0543
-5.6142302 -9.4732323 1.1358089
-12.558739 -18.43836 1.5197464
4.9524918 -8.4772539 1.0539899
-5.6506643 -9.4708881 1.1365029
-12.642344 -18.448812 1.5217621
4.9364381 -8.4986238 1.0544722
-5.6619062 -9.4398212 1.1359081
4.8983459 -8.4614639 1.0527499
-5.6897063 -9.4317541 1.134033
4.8831673 -8.4781475 1.0530944
-5.723124 -9.4252949 1.1345587
-12.87874 -18.476894 1.5229917
4.8670182 -8.4993753 1.0535766
-5.8248959 -9.5065317 1.1388301
-12.938691 -18.45927 1.5237801
4.8432703 -8.4994049 1.0532665
-5.8479924 -9.4918785 1.1389287
-13.011599 -18.464838 1.525456
4.8143005 -8.4815006 1.052302
-5.9015384 -9.511529 1.1405715
-13.081991 -18.459749 1.526803
4.7863555 -8.4704819 1.0515786
-5.9098854 -9.4747505 1.1397829
-13.143258 -18.443029 1.5276573
4.7648659 -8.4757433 1.0514753
-5.9636497 -9.4978027 1.1415243
-13.2287 -18.463064 1.5299902
4.7491693 -8.4912615 1.0517853
-5.991251 -9.4829216 1.1417215
-13.284416 -18.435402 1.5304501
4.7188258 -8.4758282 1.0492063
-6.0448799 -9.5033922 1.1433971
-13.386066 -18.470839 1.5335386
4.6876974 -8.4532557 1.0480757
-6.0605621 -9.4791613 1.1431015
-13.457083 -18.471905 1.5350829
4.6806335 -8.4914379 1.0492405
-6.1242208 -9.5076303 1.1452043
-13.562653 -18.503759 1.5381715
4.6463223 -8.4647427 1.0479386
-6.1445065 -9.4870119 1.1451056
-13.629429 -18.495317 1.5393872
4.6249895 -8.4675179 1.0477673
-6.1907492 -9.4993067 1.14642
-13.709516 -18.5061 1.5413914
4.6061416 -8.4745235 1.0477673
-6.231595 -9.4994831 1.147307
-13.798119 -18.515942 1.54356
4.5808811 -8.4713593 1.0473561
-6.260603 -9.4890079 1.1499848
-13.87887 -18.523062 1.5500808
4.5609026 -8.4776325 1.0473219
-6.2837238 -9.473299 1.1500839
-13.96629 -18.54118 1.55246
4.5443583 -8.4909134 1.0475618
-6.3221173 -9.4701405 1.150844
-14.056608 -18.55154 1.5547069
4.5207834 -8.4921532 1.0473219
-6.3765488 -9.4891176 1.1525292
-14.193072 -18.622398 1.5595313
4.5053511 -8.5111513 1.0477673
-6.4101162 -9.4834681 1.153124
-14.286692 -18.642387 1.5621088
4.4745464 -8.4868774 1.0466025
-6.4630938 -9.4983587 1.154677
-14.425659 -18.710718 1.5669332
4.4430904 -8.4627781 1.0454376
-6.4918728 -9.4850454 1.1549745
-14.467776 -18.666473 1.5667349
4.4136982 -8.4441051 1.0444783
-6.5278516 -9.4834824 1.1557344
-15.020944 -19.214951 1.5930378
4.4051065 -8.4801426 1.0455747
-6.5761747 -9.4904804 1.1569901
-15.135625 -19.246889 1.5964084
4.3879824 -8.4994535 1.04602
-6.628624 -9.5054436 1.1585431
-15.22176 -19.253019 1.5984901
4.3528776 -8.4609051 1.0443413
-6.630476 -9.4647322 1.1575519
-15.262842 -19.21151 1.5983579
4.3284292 -8.4506388 1.0437245
-6.6938791 -9.4880533 1.1595676
-15.376758 -19.240879 1.6016624
4.3116045 -8.4707069 1.0442042
-6.7290025 -9.4828701 1.1602284
-15.456706 -19.238861 1.6034137
4.2873516 -8.4633579 1.0436903
-6.7482586 -9.4616728 1.1601293
-15.531008 -19.233852 1.6049668
4.2724838 -8.481636 1.0441357
-6.8001709 -9.4713306 1.1627411
-15.610121 -19.222881 1.6089376
4.2500315 -8.48489 1.0439987
-6.8117433 -9.4397831 1.1622109
-15.721141 -19.254019 1.6122514
4.2246447 -8.4736471 1.0433477
-6.8315415 -9.4191294 1.1621447
-15.793092 -19.245287 1.6136763
4.2126503 -8.5011024 1.0441357
-6.8572164 -9.3996201 1.162244
-15.865937 -19.22629 1.6148692
4.1774406 -8.4642048 1.0425255
-6.9174657 -9.421134 1.164166
-15.964924 -19.242693 1.6175534
4.1604614 -8.4788046 1.0428338
-6.9398623 -9.4031134 1.1642323
-16.045692 -19.242512 1.6194091
4.1392546 -8.4772911 1.0425597
-6.9874477 -9.4068899 1.1654252
-16.134008 -19.23912 1.6213641
4.1177373 -8.4829788 1.0425255
-7.0328989 -9.4098778 1.1665518
-16.221937 -19.238525 1.6233855
4.0987158 -8.4939651 1.0426967
-7.0552797 -9.3915806 1.1666181
-16.297644 -19.231783 1.6249762
4.0718317 -8.4736233 1.0417374
-7.0974588 -9.3907433 1.1675792
-16.379063 -19.22349 1.6266662
4.0443354 -8.4564772 1.0408809
-7.1316257 -9.3812523 1.1681424
-16.466595 -19.221281 1.6286545
4.0219831 -8.4560728 1.0406411
-7.1977177 -9.4086428 1.1703627
-16.564058 -19.236349 1.6313055
4.0059433 -8.4710445 1.0409837
-7.2342148 -9.3994179 1.1709924
-16.655672 -19.233856 1.633393
3.9783919 -8.4557877 1.0401957
-7.2825928 -9.4059048 1.1686311
-16.77236 -19.264238 1.6292834
3.9661701 -8.4868298 1.0411208
-7.319232 -9.4017467 1.1693869
-16.866261 -19.274 1.6317148
3.9329026 -8.4426308 1.039305
-7.3768964 -9.4138088 1.1710297
-16.950127 -19.262014 1.6333904
3.9069257 -8.4318304 1.0386883
-7.4261041 -9.4203701 1.172344
-17.03928 -19.262362 1.6354933
3.895911 -8.4674482 1.0397847
-7.4451208 -9.3976545 1.1722454
-17.13492 -19.272533 1.6379905
3.883146 -8.4943838 1.0405726
-7.5311294 -9.4376326 1.1752354
-17.216988 -19.257515 1.6395675
3.8574207 -8.4843588 1.0399902
-7.5572367 -9.4200554 1.1754324
-17.300268 -19.250662 1.6413746
3.8372293 -8.4879341 1.0399216
-7.5906982 -9.4115782 1.176024
-17.390755 -19.254322 1.6436089
3.8255701 -8.5195675 1.0384239
-7.6972237 -9.4707279 1.1799667
-17.495802 -19.261169 1.6462703
3.7963245 -8.496172 1.0373706
-7.7277827 -9.4552765 1.1803281
-17.578421 -19.248787 1.647946
3.7760899 -8.5026369 1.0374045
-7.7995725 -9.4840746 1.1827267
-17.672718 -19.254892 1.6503446
3.7508979 -8.484108 1.0365551
-7.8503675 -9.4881897 1.184041
-17.775656 -19.261757 1.6529732
3.7207584 -8.4527044 1.0352298
-7.8886929 -9.4798136 1.1847638
-17.874565 -19.264132 1.6554046
3.6991479 -8.4533157 1.0350599
-7.9357491 -9.4833403 1.1859795
-17.951794 -19.252148 1.6569817
3.6803358 -8.45819 1.0350599
-8.0246582 -9.5219307 1.1928631
-18.074966 -19.273521 1.6683201
3.6729119 -8.5175257 1.0369967
-8.0447378 -9.4969759 1.1927637
-18.164026 -19.268518 1.6703746
3.6443172 -8.4875288 1.0357395
-8.0680904 -9.4769564 1.1928631
-18.254166 -19.267797 1.6725616
3.625663 -8.4932251 1.0357735
-8.1215591 -9.4804182 1.1942549
-18.35199 -19.263071 1.6748481
3.5980654 -8.4729357 1.0348561
-8.2002068 -9.5110922 1.1969059
-18.453348 -19.268522 1.6774659
3.5842247 -8.5014696 1.0357056
-8.2243147 -9.4913721 1.1970384
-18.553024 -19.275524 1.6800839
3.5669122 -8.5127201 1.0359434
-8.2851286 -9.500906 1.1987616
-18.668964 -19.286404 1.6831987
3.5317173 -8.4599638 1.0338707
-8.3193655 -9.4887114 1.1993248
-18.736591 -19.25864 1.684226
3.5163832 -8.4826822 1.0345162
-8.3512897 -9.4760208 1.1998219
-18.817364 -19.246597 1.6859492
3.4972804 -8.486187 1.0344822
-8.4273338 -9.4989033 1.2022409
-18.963005 -19.283535 1.6904228
3.4758101 -8.4901943 1.0344483
-8.5498075 -9.5677624 1.2068802
-19.05228 -19.274778 1.6924441
3.4500144 -8.4681015 1.0334969
-8.578393 -9.5511599 1.2072116
-19.137648 -19.265701 1.6943661
3.4359224 -8.4933414 1.0342444
-8.560667 -9.4867516 1.2052896
-19.250149 -19.270134 1.6972822
3.4157219 -8.502903 1.0344143
-8.6276684 -9.5016651 1.207311
-19.362432 -19.277428 1.7002646
3.3895147 -8.4817495 1.0334969
-8.6583538 -9.4868259 1.2064239
-19.45322 -19.27198 1.6997037
3.3662477 -8.4658918 1.0327833
-8.690033 -9.4692526 1.2068204
-19.558542 -19.271919 1.7023473
3.3441825 -8.4627113 1.0325115
-8.7115192 -9.4424534 1.2067542
3.3256178 -8.4756937 1.0328172
-8.7188034 -9.4065151 1.2061265
-19.76156 -19.270756 1.7074361
3.3065524 -8.478754 1.0327833
-8.805933 -9.436367 1.2090013
-19.863974 -19.262911 1.7098482
3.288518 -8.4985056 1.033327
-8.9200325 -9.493041 1.2131648
-19.988434 -19.281416 1.7134169
3.2638793 -8.4787025 1.0324775
-8.9669037 -9.4915495 1.2143214
-20.076113 -19.270552 1.7153995
3.2442286 -8.4787512 1.0323415
-9.0524597 -9.5183649 1.217097
-20.196491 -19.276936 1.7186048
3.2199171 -8.4677467 1.0317979
-9.0768414 -9.4949055 1.2171962
-20.29353 -19.269699 1.7209179
3.2084734 -8.5128355 1.033259
-9.1224051 -9.4915857 1.2182866
-20.406528 -19.279556 1.7240241
3.1833148 -8.4849787 1.0321376
-9.1950512 -9.5060711 1.2204676
-20.523685 -19.281376 1.7270641
3.1676404 -8.517869 1.0331571
-9.2246008 -9.4867048 1.220798
-20.613657 -19.266621 1.7290467
3.1427548 -8.4948311 1.0322056
-9.2947826 -9.5037947 1.2229788
-20.741924 -19.287918 1.7328137
3.1234856 -8.4965076 1.0321376
-9.3491764 -9.5016708 1.2243336
-20.85804 -19.287107 1.7357876
3.0938122 -8.4554043 1.0305406
-9.4126768 -9.5087795 1.2165017
-20.962551 -19.279585 1.7185299
3.0778351 -8.4831715 1.0313901
-9.4584389 -9.506011 1.217603
-21.127628 -19.333689 1.7238741
3.0578253 -8.4759111 1.0310163
-9.502552 -9.4944668 1.2184775
-21.231556 -19.320736 1.7262385
3.0359175 -8.4758892 1.0308805
-9.58253 -9.5144386 1.2209389
-21.374229 -19.343311 1.7303519
3.0180218 -8.4939327 1.0313901
-9.6210842 -9.5031853 1.221684
-21.479687 -19.341669 1.7330078
2.9932694 -8.4635859 1.0302008
-9.6811228 -9.504117 1.2232386
-21.634407 -19.369028 1.7375422
2.9724095 -8.4691639 1.0302688
-9.7304144 -9.499527 1.2244046
-21.821957 -19.429913 1.7436314
2.954561 -8.4830856 1.0306425
-9.8030443 -9.5156031 1.2266071
-21.933273 -19.431114 1.7465138
2.9403346 -8.5142212 1.0300274
-9.8300085 -9.4887066 1.2267365
-22.056293 -19.430048 1.7496557
2.9146018 -8.4907694 1.0290811
-9.9219151 -9.5179415 1.2297164
-22.40341 -19.617201 1.7625141
2.8919659 -8.4756584 1.028439
-9.9546022 -9.5007572 1.2302022
-22.554325 -19.647795 1.7670486
2.8770843 -8.5037374 1.0293177
-10.042486 -9.5222626 1.2329229
-22.7248 -19.681808 1.772166
2.8566945 -8.5128765 1.0295205
-10.062377 -9.4926815 1.2328258
-22.832354 -19.672295 1.7747571
2.8342886 -8.4985714 1.0289122
-10.130823 -9.5034533 1.2419674
-22.932392 -19.660166 1.7920887
2.8134756 -8.4889107 1.0284729
-10.165451 -9.4817104 1.2424275
-23.092871 -19.683857 1.7968202
2.7910731 -8.484376 1.0282025
-10.273507 -9.5211735 1.2461075
-23.216898 -19.685673 1.8001387
2.7719691 -8.4911394 1.0283377
-10.309527 -9.5036812 1.2466989
-23.346458 -19.691216 1.8036871
2.749645 -8.4756393 1.0276957
-10.379551 -9.5106888 1.2487031
-23.467264 -19.685461 1.8067758
2.7277098 -8.4679222 1.027324
-10.452768 -9.5197926 1.2508388
-23.594372 -19.684006 1.810127
2.7099771 -8.4901142 1.0279998
-10.477925 -9.4951801 1.251003
-23.725634 -19.692829 1.813807
2.6884444 -8.4733715 1.027324
-10.549851 -9.5008612 1.2530403
-23.854912 -19.687918 1.8171585
2.665678 -8.4646282 1.0269184
-10.633312 -9.5186148 1.255636
-23.992252 -19.696226 1.8210027
2.6498699 -8.4962597 1.0279322
-10.693484 -9.5200958 1.2572787
-24.127914 -19.706451 1.824847
2.6272159 -8.4696808 1.0269184
-10.743923 -9.5084124 1.2583959
-24.748592 -20.070156 1.8488982
2.6057675 -8.4704504 1.0268508
-10.811346 -9.5129509 1.2603016
-24.883446 -20.072731 1.8525782
2.5928514 -8.5271473 1.0287433
-10.883448 -9.5224962 1.2624373
-25.001705 -20.066223 1.8556337
2.5702214 -8.4994421 1.0276957
-10.95441 -9.52526 1.2644087
-25.182964 -20.094093 1.861088
2.545368 -8.4719572 1.026648
-11.015961 -9.5244131 1.2615656
-25.295845 -20.078356 1.8542218
2.5268588 -8.483963 1.026986
-11.07657 -9.5244417 1.2631943
-25.431808 -20.08309 1.8579681
2.5063176 -8.4715948 1.0264791
-11.146214 -9.5252094 1.2650838
-25.590179 -20.091612 1.8623986
2.4872735 -8.4933882 1.0271549
-11.198383 -9.5166321 1.2663217
-25.703144 -20.074232 1.8651023
2.4664202 -8.4848881 1.0267832
-11.271042 -9.5245438 1.2684391
-25.855385 -20.088821 1.8695002
2.4445324 -8.4587831 1.0258033
-11.34647 -9.5284672 1.2705564
-26.011169 -20.093178 1.8738
2.4254797 -8.4814014 1.0265129
-11.430635 -9.5401258 1.2730649
-26.162085 -20.097244 1.87797
2.4049354 -8.4825344 1.0264791
-11.481369 -9.5312538 1.2742703
-26.280777 -20.085617 1.8809669
2.3854797 -8.4786053 1.0262764
-11.541868 -9.525342 1.2758013
-26.432816 -20.089088 1.8851693
2.3654163 -8.4844952 1.0264115
-11.622355 -9.5332546 1.2781467
-26.565903 -20.078421 1.8885896
2.3483515 -8.5224018 1.0276619
-11.673223 -9.5237265 1.2793521
-26.705696 -20.079914 1.8924336
2.3277748 -8.5066738 1.0270536
-11.740385 -9.5197029 1.2811112
-26.872952 -20.087793 1.8971572
2.3059542 -8.5027733 1.0268508
-11.751333 -9.4800797 1.2806551
2.2868345 -8.5113163 1.0270875
-11.775738 -9.4517221 1.2807854
-27.25322 -20.152874 1.9088194
2.2672341 -8.5051622 1.0268171
-11.961157 -9.5284081 1.2873333
-27.340019 -20.102638 1.9102528
2.2453806 -8.5001278 1.0265806
-12.014763 -9.5175438 1.2886037
-27.473705 -20.092354 1.9137385
2.2257531 -8.5026932 1.0266143
-12.07477 -9.5127211 1.2901673
-27.606415 -20.084888 1.9172566
2.2072079 -8.5090427 1.0267832
-12.154461 -9.5152321 1.2924151
-27.804754 -20.108982 1.9231853
2.1851029 -8.4999561 1.0264115
-12.234907 -9.5216656 1.2947605
-27.945358 -20.101316 1.9269316
2.164695 -8.4916706 1.0260737
-12.304033 -9.5220308 1.2966826
-28.134464 -20.129616 1.9326978
2.1453204 -8.4861984 1.0258371
-12.404327 -9.5370712 1.2997446
-29.400085 -20.861877 1.9813988
2.1255188 -8.5090809 1.0265806
-12.469728 -9.5303526 1.3014386
-29.596987 -20.881231 1.9872301
2.1033649 -8.4851694 1.0241252
-12.501554 -9.5069904 1.3018947
-29.755646 -20.887245 1.9917581
2.0876501 -8.524312 1.0254359
-12.55076 -9.4872389 1.3029046
-29.955858 -20.90255 1.9976218
2.0642006 -8.49055 1.0242261
-12.566375 -9.447319 1.3026114
-30.122498 -20.899197 2.0022149
2.0430028 -8.4790869 1.0237892
-12.628426 -9.4414349 1.3042402
-30.270615 -20.891678 2.0062218
2.0249963 -8.4957418 1.0243269
-12.675062 -9.4214706 1.3051848
-30.417902 -20.874281 2.0100331
2.0044639 -8.4958744 1.0242933
-12.753721 -9.421895 1.3074
-30.576799 -20.863657 2.0143008
1.9842749 -8.5027771 1.0244949
-12.825867 -9.4216433 1.3061543
-30.751839 -20.8713 2.0120058
1.9650269 -8.4968815 1.0242597
-12.913815 -9.425272 1.3086805
-30.936096 -20.870867 2.0171556
1.9439754 -8.5027494 1.0244277
-13.021572 -9.4448462 1.312049
-31.162006 -20.904552 2.024087
1.9223809 -8.4597406 1.0229155
-13.093916 -9.4435472 1.3140571
-31.320992 -20.899399 2.0284595
1.9053411 -8.5044098 1.0244277
-13.192976 -9.4527378 1.3170044
-31.513382 -20.901196 2.0339007
1.8841238 -8.5071983 1.0244949
-13.297046 -9.468441 1.3202109
-31.695404 -20.904385 2.039083
1.8638813 -8.4932938 1.0239909
-13.436087 -9.5072002 1.3248103
-31.873991 -20.908993 2.0442004
1.8453071 -8.5037012 1.0243269
-13.536482 -9.5154657 1.32779
-32.052895 -20.899652 2.0490913
1.8235404 -8.4888563 1.0214269
-13.633577 -9.5251637 1.330705
-32.248833 -20.908726 2.0547917
1.8046925 -8.5187054 1.0224267
-13.72241 -9.5313435 1.3333285
-32.425514 -20.909582 2.0598121
1.7857611 -8.5201969 1.02246
-13.716307 -9.4736528 1.3321625
-32.621681 -20.907997 2.0653505
1.7644284 -8.5207253 1.02246
-13.904016 -9.5347252 1.3385432
-32.822777 -20.912855 2.0711482
1.7431281 -8.4850779 1.021227
-13.983957 -9.5342722 1.3408103
-32.987476 -20.903915 2.0756826
1.7243388 -8.4903316 1.0213937
