# .PCD v0.7 - Point Cloud Data file format
VERSION 0.7
FIELDS x y z
SIZE 4 4 4
TYPE F F F
COUNT 1 1 1
WIDTH 1522
HEIGHT 1
VIEWPOINT 0 0 0 1 0 0 0
POINTS 1522
DATA ascii
-2.6989765 -16.236225 2.1522734
-17.701183 -5.2978859 2.4182868
-58.915279 -16.108568 6.0134349
-0.083942652 -6.4031329 1.2829471
-2.7420387 -16.237743 2.1533542
-18.009869 -5.3328357 2.4442327
-66.236832 -17.869434 6.6486988
-0.08566761 -6.356286 1.2791228
-2.7726102 -16.211296 2.1518579
-18.150177 -5.3149686 2.4553173
-66.701584 -17.801823 6.6852365
-0.10526729 -6.3660483 1.2803699
-2.8182278 -16.215944 2.1532712
-18.263157 -5.2914658 2.4699764
-67.001839 -17.697039 6.7280731
-0.11808681 -6.3534136 1.2796216
-2.8584604 -16.206829 2.1534374
-18.325645 -5.2587605 2.4744253
-0.13100696 -6.3457642 1.2792891
-2.8940449 -16.192848 2.1531048
-18.324841 -5.2059593 2.4732718
-67.709694 -17.524233 6.7826133
-0.16389084 -6.4042263 1.2848591
-2.9376755 -16.195711 2.1543519
-18.453325 -5.1851368 2.4834054
-0.17112565 -6.3718166 1.2823651
-2.9770675 -16.183487 2.1542687
-18.66785 -5.1888103 2.5011187
-58.660374 -14.960918 5.9867535
-0.19107223 -6.3883595 1.284194
-3.0203919 -16.196352 2.156347
-18.963371 -5.2048469 2.5257523
-63.658363 -16.003466 6.4187918
-0.20225286 -6.3678961 1.2827806
-3.0610332 -16.182543 2.1561809
-19.109566 -5.1878495 2.5374513
-0.21656585 -6.3626943 1.2826976
-3.0933762 -16.151793 2.1544349
-19.248703 -5.1706038 2.5485737
-0.24355316 -6.4024124 1.2866049
-3.1414967 -16.180199 2.1579266
-19.389271 -5.1467276 2.559696
-67.38517 -16.373383 6.733016
-0.25186586 -6.3725252 1.2843602
-3.1868248 -16.181931 2.1591735
-19.548832 -5.1308017 2.5725484
-74.126205 -17.759033 7.3154931
-0.2734921 -6.3914261 1.2864386
-3.2243633 -16.168617 2.1590073
-19.838865 -5.146143 2.59677
-74.583641 -17.680462 7.3517437
-0.27961826 -6.3611012 1.2841108
-3.2657261 -16.173367 2.1604207
-19.84766 -5.0899611 2.5964406
-74.993896 -17.566057 7.3834624
-0.30763912 -6.3962865 1.2876856
-3.3028526 -16.14777 2.1592567
-20.007328 -5.0718555 2.609293
-75.52327 -17.491795 7.4258094
-0.31999087 -6.3843303 1.2870204
-3.3437519 -16.145338 2.1600881
-20.138067 -5.0487871 2.6196737
-75.914261 -17.392254 7.4562926
-0.32736063 -6.3586006 1.2851084
-3.3880758 -16.159063 2.1623328
-20.343386 -5.0348721 2.6363983
-76.337669 -17.274641 7.4891653
-0.36356235 -6.4186277 1.2909279
-3.4338436 -16.161022 2.1636629
-20.520733 -5.0160847 2.6507337
-0.36176181 -6.3600025 1.2861061
-3.4707632 -16.140152 2.1629145
-20.629648 -4.9862757 2.6592195
-0.37693477 -6.3592458 1.2864386
-3.5093222 -16.134995 2.1634965
-20.652802 -4.9334431 2.6602082
-0.40674472 -6.3997388 1.2905121
-3.558404 -16.151909 2.1661568
-20.8473 -4.9162493 2.6760266
-80.994858 -17.448885 7.8778677
-0.42380333 -6.4003401 1.2910109
-3.5892086 -16.112244 2.1637459
-21.150562 -4.9250193 2.7013195
-81.466896 -17.34808 7.9152713
-0.43605924 -6.3901873 1.2905121
-3.6377711 -16.137304 2.1670713
-21.242678 -4.8825827 2.7082398
-82.002914 -17.2332 7.9577832
-0.46319366 -6.4191461 1.293588
-3.6913505 -16.161638 2.1704798
-21.460732 -4.8695593 2.7261178
-0.47941065 -6.418766 1.2952448
-3.7228413 -16.129337 2.1719382
-21.630692 -4.8482752 2.7398765
-78.22757 -16.07601 7.625104
-3.756814 -16.109737 2.1712716
-21.864056 -4.8316698 2.7589903
-0.51972413 -6.4390717 1.2979944
-3.8055925 -16.118927 2.1733546
-21.95808 -4.7916527 2.7661581
-0.53007174 -6.421154 1.2968278
-3.8539352 -16.136375 2.1761041
-21.891037 -4.7228279 2.7594845
-3.8856497 -16.110052 2.1748543
-22.054577 -4.6908007 2.7725842
-89.991348 -17.472218 8.6254482
-0.55688047 -6.4016166 1.2959948
-3.9246926 -16.090359 2.1743543
-22.331696 -4.6837549 2.7885084
-90.571327 -17.352875 8.6447258
-0.572191 -6.398335 1.2961613
-3.9635372 -16.079895 2.1746044
-22.616529 -4.6791916 2.8120732
-0.58205509 -6.3814592 1.2950782
-4.0024691 -16.074461 2.1752708
-22.858688 -4.6583586 2.831861
-86.063034 -16.073242 8.2511034
-0.61382413 -6.4207835 1.2991608
-4.0534468 -16.088396 2.1778538
-23.043953 -4.628603 2.8468044
-86.094521 -15.853497 8.2504463
-0.63996339 -6.4455428 1.3019104
-4.0961199 -16.083487 2.1786871
-23.22072 -4.6013479 2.8610911
-4.1344523 -16.075895 2.1791871
-23.462561 -4.5796423 2.8808789
-0.66749787 -6.4293871 1.3014104
-4.1804671 -16.07991 2.1808534
-23.680466 -4.5526695 2.8986142
-0.66472459 -6.3744602 1.2969112
-4.2238555 -16.076487 2.1818533
-23.686449 -4.49401 2.8982856
-4.2605257 -16.064022 2.1819365
-24.037199 -4.4849749 2.9273517
-0.71696591 -6.4237866 1.3005246
-4.3113575 -16.075706 2.1795046
-24.233587 -4.4540653 2.9432805
-93.476341 -15.742928 8.8628845
-0.72485042 -6.4000645 1.2988639
-4.35501 -16.077049 2.1809163
-24.440144 -4.426425 2.9601126
-0.72242212 -6.3510737 1.2948779
-4.3769016 -16.025141 2.1774287
-24.644054 -4.3897238 2.9766161
-97.324524 -15.874508 9.1852379
-0.7682507 -6.4242296 1.3021023
-4.4325266 -16.048794 2.1809995
-24.875042 -4.3613853 2.9955008
-0.77461004 -6.396801 1.3001094
-4.4765773 -16.050713 2.1824942
-25.133554 -4.3387938 3.0167665
-4.5223126 -16.061264 2.1847363
-25.318642 -4.2960529 3.0264223
-0.82142711 -6.4287848 1.3040953
-4.5578499 -16.031832 2.1834908
-25.498632 -4.2569323 3.0409224
-0.82266879 -6.388607 1.3009398
-4.5906186 -16.004414 2.182328
-25.586731 -4.2062454 3.0476398
-4.6360693 -16.013731 2.1844871
-25.770267 -4.160862 3.0623856
-0.85718203 -6.3885837 1.3020194
-4.6706667 -15.982239 2.1830754
-26.129725 -4.1419773 3.0921228
-102.28185 -14.846779 9.5659027
-0.86408329 -6.3617353 1.3001094
-4.7144909 -15.978373 2.184155
-26.47368 -4.1273832 3.1206312
-0.88512611 -6.3753037 1.3018532
-4.7527285 -15.973499 2.1849854
-26.716969 -4.0865536 3.140456
-0.90309262 -6.3743343 1.3023515
-4.804678 -15.985024 2.1875596
-26.727398 -4.016263 3.1405377
-0.92163229 -6.3763533 1.3018359
-4.850173 -15.984651 2.1857181
-27.093956 -3.9980669 3.1709304
-4.8951797 -15.991429 2.1877065
-27.307827 -3.952961 3.1882975
-0.97206497 -6.4155712 1.3065586
-4.9399128 -15.988747 2.1889493
-27.528404 -3.9076595 3.2062383
-0.9761076 -6.3822737 1.304073
-4.9794264 -15.973366 2.1890321
-27.771423 -3.8697557 3.2261448
-131.30458 -16.646069 12.008039
-0.99617243 -6.3907504 1.3053987
-5.0230565 -15.976193 2.1906891
-28.01255 -3.821908 3.245806
-127.08318 -15.787258 11.646523
-1.0203249 -6.4037986 1.3072214
-5.0632868 -15.958175 2.1906064
-28.354416 -3.7905512 3.2740686
-132.65157 -16.133579 12.115438
-1.0288944 -6.3832464 1.3058958
-5.1031342 -15.947599 2.1911035
-28.631927 -3.753046 3.28811
-129.00223 -15.397232 11.765034
-1.0563507 -6.4085493 1.3087957
-5.1491361 -15.955453 2.1932576
-28.904861 -3.7048979 3.3103981
-129.93733 -15.160938 11.840715
-1.0621784 -6.3785009 1.3066413
-5.1804352 -15.916565 2.1912692
-29.158714 -3.6592064 3.3311348
-130.75903 -14.933037 11.907089
-1.0841577 -6.3891273 1.3082156
-5.2434931 -15.959236 2.1967375
-29.345444 -3.6080332 3.3462384
-1.0880706 -6.3598228 1.3060615
-5.2659063 -15.912313 2.1938376
-29.608532 -3.55509 3.3677099
-1.1187046 -6.3867579 1.3092098
-5.3239985 -15.934632 2.197566
-29.655075 -3.4844627 3.3709755
-1.1396439 -6.394526 1.3105356
-5.3670235 -15.930517 2.1987259
-30.100048 -3.4570246 3.4078772
-1.1537066 -6.3882723 1.3105356
-5.4085646 -15.92695 2.1998858
-30.342594 -3.3982658 3.4276342
-1.1754227 -6.3943624 1.3137064
-5.4448872 -15.899572 2.2039826
-30.473356 -3.3306398 3.4380026
-1.1906562 -6.3874974 1.3137064
-5.4878101 -15.890902 2.204814
-30.635372 -3.2715435 3.4510651
-1.2018826 -6.374927 1.3131244
-5.5337858 -15.89676 2.2068923
-31.085678 -3.2318001 3.4883749
-1.2178774 -6.3697648 1.3132907
-5.5820098 -15.899346 2.2088044
-31.433233 -3.1807032 3.5170307
-1.2468991 -6.392838 1.3161173
-5.6270342 -15.894723 2.2100513
-31.669659 -3.1247253 3.5363796
-1.2408981 -6.3430848 1.3120437
-6.1943097 -17.023876 2.3179586
-31.946295 -3.0646009 3.5590758
-1.279875 -6.3871946 1.3168654
-6.2570143 -17.049433 2.3221984
-32.311253 -3.010313 3.5990477
-1.2835047 -6.3554106 1.3145378
-6.292172 -17.015778 2.3208683
-32.67741 -2.9609251 3.6294403
-1.3062088 -6.3673 1.3162835
-6.3310761 -16.99852 2.3209512
-32.690125 -2.8728228 3.6299319
-1.3156862 -6.346652 1.3150365
-6.379344 -16.988552 2.321949
-33.248489 -2.8317289 3.6765447
-1.3260176 -6.3309393 1.3142052
-6.4349165 -17.001921 2.3250248
-33.472717 -2.7673855 3.6949768
-1.3525991 -6.3505564 1.3166991
-6.4813929 -17.000109 2.3266044
-33.614048 -2.6861172 3.7063637
-1.393772 -6.3955011 1.3216872
-6.5445986 -17.020359 2.3305116
-33.883877 -2.619524 3.7286463
-6.6056018 -17.043713 2.3345852
-34.406822 -2.5714149 3.77231
-1.4246371 -6.3859229 1.3214507
-6.637363 -17.011015 2.3314683
-34.788582 -2.5016508 3.8040133
-1.4800701 -6.4584131 1.3290904
-6.6901245 -17.008904 2.3332951
-35.131912 -2.4347095 3.8325217
-1.4688952 -6.398797 1.324108
-6.7241364 -16.976854 2.3321326
-35.474922 -2.3696804 3.8610299
-1.4629605 -6.3517475 1.3202882
-6.757751 -16.948151 2.3312192
-35.643517 -2.2828026 3.8747926
-1.4865375 -6.3595204 1.3217828
-6.8209801 -16.966522 2.3350389
-36.016773 -2.2093163 3.9058406
-1.5144238 -6.3770571 1.3241911
-6.5615988 -16.350838 2.2781565
-36.346764 -2.1391296 3.933284
-1.508144 -6.3300514 1.3203712
-6.5822277 -16.299997 2.275084
-36.717758 -2.0620346 3.9530742
-6.9787092 -16.975948 2.3418481
-37.012821 -1.9797115 3.9774847
-1.5476277 -6.3327894 1.3221151
-6.9975739 -16.910471 2.3376131
-37.352119 -1.9052734 4.005651
-1.5857203 -6.3722501 1.3265992
-7.0595431 -16.936501 2.3420143
-37.697571 -1.8182335 4.034307
-7.114778 -16.937397 2.3442564
-38.103806 -1.7392998 4.0681062
-1.6250936 -6.3736701 1.3282599
-7.1524196 -16.912222 2.3438413
-38.618675 -1.6660957 4.1110492
-1.6404691 -6.3688817 1.3285091
-7.2056465 -16.920507 2.3465815
-38.86924 -1.570219 4.1317859
-1.6681335 -6.3829942 1.3293433
-7.2488384 -16.898005 2.3429739
-39.340153 -1.4875107 4.1710548
-1.6804615 -6.3709207 1.3289289
-7.3459215 -16.984116 2.3533309
-39.693069 -1.4032364 4.2004457
-7.3696079 -16.936119 2.3506794
-40.101582 -1.3067875 4.2344899
-1.713905 -6.3617983 1.3295919
-7.4006715 -16.890659 2.3485253
-40.498005 -1.2160244 4.2675543
-1.7628438 -6.4171805 1.335723
-7.4901571 -16.960596 2.3573906
-40.943768 -1.128458 4.3047829
-1.7928157 -6.4385271 1.3385401
-6.3475127 -14.777471 2.1476054
-41.503407 -1.0285454 4.351563
-1.7825029 -6.3820443 1.3339002
-7.5739546 -16.920357 2.3578048
-41.607025 -0.92285919 4.3642712
-1.8047655 -6.3864398 1.3351431
-7.6219969 -16.90943 2.3589649
-38.597832 -0.7838707 4.1113858
-42.242878 -0.83198547 4.4175615
-1.8221169 -6.3846097 1.335723
-7.6640186 -16.895039 2.3596277
-42.557514 -0.72623253 4.4438801
-1.8297263 -6.3625426 1.3343973
-7.7182274 -16.894896 2.3618646
-42.914711 -0.6192646 4.4737945
-7.7715397 -16.892893 2.3639359
-43.399071 -0.51985931 4.5144167
-1.8746501 -6.3741226 1.3371315
-7.836081 -16.917938 2.3684931
-44.200493 -0.40623093 4.5816836
-1.8918577 -6.3677201 1.3373802
-7.8858542 -16.905371 2.369653
-44.539383 -0.29693794 4.610127
-1.9161022 -6.3762951 1.3390372
-7.6522284 -16.404596 2.3227577
-1.9345437 -6.3759465 1.3384345
-7.6846066 -16.375158 2.3183692
-1.9405676 -6.3500061 1.3367811
-8.0619593 -16.931471 2.3753266
-1.9736992 -6.3735337 1.3399224
-8.0578098 -16.832638 2.3678868
-1.976905 -6.3468814 1.3381038
-8.1508865 -16.904514 2.3771453
-1.999999 -6.3502574 1.3393438
-8.2896032 -17.041998 2.3931828
-2.0239511 -6.3575931 1.3409145
-8.3787956 -17.101231 2.4013669
-2.0617976 -6.389451 1.3448825
-8.5696526 -17.334221 2.4266629
-2.0606189 -6.351634 1.3420718
-8.5098743 -17.134216 2.4094682
-2.0912914 -6.3684111 1.3446345
-8.7805672 -17.489264 2.4471643
-2.1097424 -6.3686476 1.3454611
-7.4094872 -15.135593 2.2157793
-2.128525 -6.3640876 1.3459572
-7.4463959 -15.109802 2.2155313
-1.8161012 -6.3580928 1.3080525
-7.5539346 -16.834505 2.281321
-1.8315454 -6.352942 1.3082905
-7.5840793 -16.799072 2.2799728
-1.8558123 -6.3595529 1.3097181
-7.6603694 -16.835884 2.2856038
-1.8548021 -6.3233695 1.3071009
-7.7010336 -16.815516 2.2857623
-1.8934952 -6.3597288 1.3112249
-7.7676592 -16.845188 2.2905207
-1.9135896 -6.3584852 1.3119388
-7.8110542 -16.821922 2.2906001
-1.9345554 -6.3600512 1.3128903
-7.6569529 -16.453972 2.2583218
-1.9374093 -6.3337989 1.3111455
-7.6878338 -16.425226 2.2575285
-1.959428 -6.3357882 1.3121766
-7.9658933 -16.813395 2.296231
-8.0275602 -16.825096 2.299562
-2.0100183 -6.3560576 1.3156662
-8.0524845 -16.780331 2.2974205
-2.0252173 -6.3472223 1.3156662
-8.1142397 -16.791719 2.3007514
5.062202 -6.3421946 1.3177737
9.9676418 -14.860655 2.1282098
-8.1578941 -16.771832 2.3011479
5.0446615 -6.3466549 1.3173726
9.9090261 -14.84269 2.1245186
-2.0746484 -6.3645034 1.3189178
-8.2151499 -16.782206 2.3042409
5.0061288 -6.3114991 1.3132802
9.8494873 -14.816164 2.1201856
-2.0889354 -6.3526006 1.3193595
-7.4099569 -15.326822 2.1704628
5.0240645 -6.3796597 1.318897
9.8190212 -14.850251 2.1213894
-2.1045387 -6.3455887 1.3195183
-7.4630032 -15.333782 2.1731625
9.7998295 -14.897966 2.1240373
-2.1040354 -6.313005 1.3172157
-7.5036821 -15.323077 2.1741152
4.9630394 -6.3380666 1.3134407
9.7509556 -14.889687 2.1214695
-2.1347818 -6.3285933 1.3195977
-7.549191 -15.310487 2.1751475
9.7216282 -14.926119 2.1229138
-2.1725371 -6.3580885 1.3232503
-7.6054325 -15.321984 2.1783235
4.9012222 -6.2978458 1.3080645
9.658226 -14.894518 2.1180995
-7.643117 -15.305919 2.1787999
4.8981586 -6.3251038 1.3099101
9.6241074 -14.912235 2.1180191
-2.2272575 -6.3805923 1.3271409
-7.7028999 -15.316157 2.1820555
4.8731575 -6.3166189 1.3083053
9.5726566 -14.90827 2.1156921
-2.2352934 -6.3608041 1.3261087
-7.739994 -15.295647 2.1822143
4.8623729 -6.3313079 1.3096076
9.5458813 -14.942681 2.1187367
-2.3313265 -6.4845319 1.3388128
-7.769968 -15.266837 2.1814997
4.8461237 -6.3345852 1.309206
9.499155 -14.937022 2.1164873
-2.3181095 -6.4274311 1.334287
-7.8154879 -15.253461 2.1825318
9.4740915 -14.981497 2.1187367
-7.8580146 -15.238377 2.1833258
4.8024731 -6.3271132 1.3069565
9.4080639 -14.946217 2.1135952
-2.3243227 -6.3718619 1.330714
-7.9178762 -15.257103 2.1872165
4.8095579 -6.3740673 1.310652
9.3656178 -14.947881 2.1120689
-7.9620118 -15.244204 2.1882486
9.3413029 -14.990499 2.114238
-2.3714986 -6.3788614 1.3332548
-8.0239124 -15.259096 2.1919806
4.7488227 -6.3324018 1.3052695
9.2833462 -14.969322 2.1104622
-2.3861361 -6.3707423 1.332638
-8.0731754 -15.260156 2.1924961
4.7362385 -6.3422856 1.3055105
9.2432194 -14.974951 2.1093376
-2.3918924 -6.3462353 1.3312106
-8.1110783 -15.236998 2.1925752
4.7117033 -6.332016 1.3038235
9.2034264 -14.987984 2.1087751
-2.4102371 -6.341351 1.3316864
-8.1626682 -15.234993 2.1947167
4.7046371 -6.3553953 1.3052695
9.1658478 -15.005232 2.1086147
-2.4125619 -6.3143225 1.3299416
9.1412716 -15.040855 2.1103015
-2.4207792 -6.2926989 1.3288313
4.6466126 -6.3151464 1.3001282
9.0681267 -14.991896 2.1039553
-2.4373794 -6.2864728 1.3291485
4.6264195 -6.311214 1.2990837
9.0200863 -14.984646 2.1016254
-2.4539309 -6.2813959 1.329545
8.9888592 -15.006962 2.1021075
-2.4705968 -6.2726932 1.3297037
-8.3427353 -15.113472 2.1944788
4.6078529 -6.3479834 1.2991405
8.9460945 -15.016889 2.0964839
-2.5325718 -6.3343291 1.3366828
-8.3837252 -15.097867 2.1952717
4.5863638 -6.3413019 1.2978597
8.9254894 -15.064152 2.099206
-2.5465515 -6.3249731 1.3366828
-8.4151421 -15.070983 2.1948752
4.5603271 -6.3237967 1.2956181
8.861248 -15.019966 2.0936022
-8.4643536 -15.061336 2.1964614
4.5609813 -6.3647079 1.2986602
8.8479614 -15.089451 2.0982451
-2.6111863 -6.3553376 1.3416792
-8.4965363 -15.032513 2.1959856
8.7966423 -15.074492 2.0952833
-2.6405635 -6.368319 1.3438998
-8.5359955 -15.01745 2.1967785
8.7583284 -15.082324 2.0944827
-2.6569266 -6.358314 1.3439791
-8.591238 -15.016243 2.1992371
4.5068398 -6.3661695 1.296819
8.7001133 -15.059678 2.0907202
-2.6743386 -6.3510714 1.3442965
-8.6285553 -14.991776 2.1993165
8.6783934 -15.108997 2.0936022
-2.6999929 -6.3581929 1.3459618
-8.6751842 -14.986774 2.2011406
4.4922824 -6.4109249 1.2996209
8.6312752 -15.098076 2.0911205
-2.7218974 -6.3560171 1.3468342
-8.7216301 -14.972297 2.2023301
4.435183 -6.3313737 1.2916954
8.5791531 -15.087271 2.0884786
-2.7370684 -6.3466134 1.3469136
-8.7624578 -14.955664 2.2031233
4.4198403 -6.3364596 1.2915354
8.3174629 -14.623152 2.0447688
-2.7684336 -6.3614659 1.3493721
-8.8175364 -14.962204 2.2061369
4.3947668 -6.3191938 1.2893739
8.2448692 -14.553997 2.0370836
-2.7870386 -6.3543005 1.3497686
-8.8561373 -14.936172 2.2062163
4.392241 -6.3547306 1.2919356
8.2406912 -14.641844 2.043488
-2.8163085 -6.3645697 1.3518307
-8.9059582 -14.93187 2.2082784
8.4235058 -15.128574 2.0892928
-2.8303568 -6.3545604 1.3518307
-8.9628983 -14.940298 2.21153
4.3340063 -6.3032417 1.2873623
8.3211517 -14.995684 2.0758123
-2.8586245 -6.3606534 1.3535755
-9.0196171 -14.939186 2.2141471
4.3248596 -6.3245444 1.2886462
8.2814217 -15.009564 2.0754914
-2.880084 -6.3595948 1.3545271
-9.0576324 -14.91781 2.2145436
4.2902956 -6.2867951 1.2846341
8.2842274 -15.109838 2.0831141
-2.8992639 -6.3565288 1.3552408
-9.098773 -14.903658 2.2155747
4.298429 -6.3418522 1.2890474
8.2656593 -15.159861 2.0862436
-2.9098837 -6.3379731 1.3545271
-9.1332178 -14.871386 2.2150989
4.2847128 -6.3533349 1.2894485
8.2140169 -15.147816 2.0835958
-2.938838 -6.3469477 1.3565098
-9.2090769 -14.901532 2.2207296
4.2701468 -6.3598218 1.2894485
8.1455841 -15.089862 2.0769358
-2.9418781 -6.3217654 1.3550029
-9.2398663 -14.872871 2.2203331
4.247901 -6.3473167 1.2877635
8.1114893 -15.104952 2.0769358
-2.9645202 -6.3195639 1.3559546
-9.2927322 -14.86529 2.2223952
4.2677245 -6.4353495 1.2950654
8.0973053 -15.177103 2.0819106
-3.0022919 -6.3387995 1.3590477
-9.3703823 -14.893706 2.2280259
8.0640326 -15.20225 2.0827131
-3.0174463 -6.3299203 1.3592062
-9.4145336 -14.882627 2.2294536
4.2034216 -6.3678055 1.2878437
8.0150013 -15.183204 2.0796638
-3.0115197 -6.2905664 1.3563511
-9.4696808 -14.8802 2.2319915
4.1843972 -6.3654051 1.2870413
7.9663105 -15.172392 2.0772567
-3.0195098 -6.2699165 1.3553995
-9.5014095 -14.846531 2.2313569
4.2054901 -6.4569492 1.2946643
7.9287853 -15.187391 2.0771763
-3.0021417 -6.2183561 1.3511962
-9.5502625 -14.841272 2.2334189
4.1468406 -6.3581481 1.2852761
7.8853521 -15.180473 2.0752506
-3.0524135 -6.2522559 1.3558753
-9.6033421 -14.832663 2.235481
4.1314745 -6.3656921 1.2853563
7.8354373 -15.169855 2.0728433
-3.085737 -6.265975 1.3584132
-9.6518803 -14.823706 2.2373052
4.0947399 -6.3188295 1.280622
7.7971034 -15.178541 2.0722816
-3.0989633 -6.2545738 1.3583338
-9.7103329 -14.830318 2.2406361
4.0797181 -6.3219233 1.2803813
7.7493701 -15.160469 2.0693929
-3.1109023 -6.2379637 1.3578581
-9.7533932 -14.808105 2.2413497
4.084095 -6.3769879 1.2847143
7.7349358 -15.2349 2.0746086
-3.1234367 -6.2245264 1.3576201
-9.800806 -14.797153 2.2430153
4.0562005 -6.3505678 1.2818257
7.6824808 -15.209099 2.0709977
-3.1683555 -6.2536683 1.3617442
-9.87743 -14.826237 2.2487254
4.055058 -6.387825 1.2846341
7.6473799 -15.22132 2.0708373
-3.1736383 -6.2284904 1.3603959
-9.9109001 -14.791313 2.2481704
4.0264874 -6.3626461 1.2818257
7.6086817 -15.236998 2.0708373
-3.2218251 -6.2600565 1.363369
-10.034031 -14.875557 2.2561753
4.0013981 -6.3423166 1.2794986
7.5601397 -15.219808 2.0680289
-3.2326045 -6.2453036 1.3629735
3.9946437 -6.3659763 1.2811035
7.5282664 -15.239879 2.0685906
-3.2420223 -6.2253571 1.3621823
3.9609947 -6.326973 1.2770915
7.473424 -15.214518 2.0649798
-3.2739534 -6.2347045 1.3643976
3.9551554 -6.3564682 1.2791777
7.4443531 -15.250023 2.0668254
-3.2913675 -6.2281876 1.3648725
-12.056551 -17.095676 2.49979
3.9386933 -6.3555899 1.278616
7.3929296 -15.219969 2.0629737
-3.3221807 -6.235817 1.3669295
-12.127297 -17.097301 2.5035088
3.9270515 -6.3705502 1.2794185
7.3528609 -15.227174 2.0623317
-3.3506026 -6.2403116 1.3686702
-12.185842 -17.083588 2.505645
3.9080241 -6.3664093 1.2785358
7.3134909 -15.236086 2.0618503
-3.3834774 -6.2524214 1.371123
-12.244876 -17.076845 2.508256
3.9013319 -6.3909636 1.2789667
7.2798443 -15.251316 2.0589385
-3.4021246 -6.2446718 1.3715978
-12.320164 -17.08305 2.5125287
3.8671441 -6.3466892 1.2745638
7.2301054 -15.23273 2.0560565
-3.4306889 -6.2488685 1.3733385
-12.375096 -17.064234 2.5141902
3.86536 -6.3879275 1.2776859
7.2000008 -15.265924 2.0577376
-3.4681067 -6.2658939 1.3763449
-12.439864 -17.063644 2.5175133
3.8342929 -6.3475952 1.2736831
7.1464558 -15.22777 2.0532546
-3.4761639 -6.2439795 1.3753955
-12.50205 -17.049843 2.519887
3.8324263 -6.3908567 1.2769654
7.1161876 -15.264971 2.0552559
-3.5618434 -6.3169613 1.3844154
-12.56542 -17.043756 2.5228143
3.802671 -6.3551483 1.2733629
7.0695148 -15.248983 2.0526943
-3.5927224 -6.3253269 1.3865516
-12.626604 -17.038073 2.5256627
3.7823501 -6.3428941 1.2718419
7.0237188 -15.230508 2.0499723
-3.6298203 -6.3372974 1.3892417
-12.703362 -17.04073 2.5298562
3.7808859 -6.3879519 1.2752843
6.9939394 -15.269283 2.0521338
-3.651329 -6.3330708 1.3901122
-12.759335 -17.025099 2.5318341
3.7701867 -6.4042234 1.2762449
6.959971 -15.287734 2.0526142
-3.6672008 -6.3233585 1.3903495
-12.804848 -17.000317 2.5327046
3.7439969 -6.3753471 1.2732829
6.9218278 -15.290009 2.0517335
-3.6962252 -6.325388 1.392011
-12.881793 -17.002268 2.5368979
3.7226944 -6.3653526 1.2719219
6.8712764 -15.270776 2.0488515
-3.7164905 -6.3194785 1.3927231
-12.929532 -16.976519 2.5378475
3.692313 -6.325491 1.2679993
6.8346844 -15.281599 2.0486915
-3.7329855 -6.3103366 1.3930396
-12.989035 -16.967464 2.5404584
3.6617508 -6.2825613 1.2638364
6.6634626 -14.901205 2.0145082
-3.7806525 -6.3333616 1.3969957
-13.080261 -16.984823 2.5463924
3.6471581 -6.2907124 1.2640766
6.5747609 -14.767145 2.0016994
-3.7887278 -6.3120646 1.3961253
-13.131551 -16.959333 2.5475793
3.6312547 -6.2932014 1.2626176
6.6172557 -15.009069 2.0186474
-3.8271122 -6.3275633 1.399132
-13.180893 -16.937973 2.5489244
3.6208577 -6.3080626 1.2634962
6.6522818 -15.223368 2.0362184
-3.8409433 -6.3127403 1.3989737
-13.245026 -16.926756 2.5516937
3.5958719 -6.2836409 1.2609403
6.6131492 -15.230453 2.0357392
-3.8773899 -6.3233304 1.4015847
-12.333068 -15.819127 2.4351478
3.5883093 -6.310822 1.2628572
-3.8842018 -6.3028989 1.4007144
-12.383771 -15.803877 2.4369676
3.5692141 -6.2997446 1.2614994
-3.9408445 -6.3344679 1.405699
-12.475392 -15.824991 2.4432182
3.5511909 -6.2975001 1.2608604
-3.9282057 -6.2912478 1.3984756
-12.502125 -15.779714 2.4318426
3.5394795 -6.3105564 1.2615793
-3.9754496 -6.3154364 1.402487
-12.57445 -15.787751 2.4362473
3.5303955 -6.3298845 1.2628572
6.4213839 -15.256936 2.0328641
-3.9839034 -6.2932634 1.4016218
-12.628391 -15.766295 2.4378991
3.5328724 -6.3914666 1.267729
6.4049082 -15.338945 2.0388541
-4.0358601 -6.3209314 1.4061052
-12.72671 -15.799044 2.445214
3.5170381 -6.3924408 1.2674096
6.3602386 -15.323591 2.0365379
-4.0596972 -6.3188543 1.407285
-12.762442 -15.766208 2.445214
3.5017946 -6.3931904 1.2670901
6.3188686 -15.313227 2.0347011
-4.0945559 -6.3250847 1.4095659
-12.832309 -15.761306 2.4487534
3.5068941 -6.465045 1.2728407
6.2840075 -15.33847 2.0358191
-12.908554 -15.768888 2.4533942
3.5085063 -6.5226521 1.2773931
6.2721319 -15.427805 2.0425282
-4.1170311 -6.2922101 1.4088581
-12.950863 -15.742744 2.4541807
3.471802 -6.4545364 1.2711635
6.2641802 -15.526022 2.0500357
-4.1566377 -6.3031173 1.4116896
-13.022235 -15.738556 2.4578774
3.4404795 -6.4091644 1.2668505
6.3195305 -15.84906 2.0767117
-4.2057815 -6.3250237 1.415701
-13.088189 -15.731256 2.4611022
3.4192805 -6.3942404 1.2651733
6.2232575 -15.670788 2.0604184
-4.2050877 -6.2975378 1.4140493
-13.159793 -15.738541 2.4655068
3.3971269 -6.3694 1.2626975
6.1770082 -15.639989 2.0569043
-4.2072773 -6.268589 1.4124762
-13.224678 -15.726536 2.4684172
3.39272 -6.4123592 1.265972
6.1383395 -15.655593 2.0572238
-4.2666988 -6.300663 1.4176674
-13.270609 -15.697449 2.4692824
3.3625882 -6.3664627 1.2616591
6.0945015 -15.648256 2.0556264
-4.2886972 -6.295732 1.4186113
-13.347958 -15.706839 2.474159
3.361393 -6.4144816 1.2654129
6.0673065 -15.686653 2.0580225
-4.3332896 -6.3117623 1.4261124
-13.412245 -15.696395 2.4875262
3.3390667 -6.3946152 1.2633364
6.011858 -15.638908 2.0529907
-4.3700838 -6.3194675 1.4286442
-13.473761 -15.682834 2.4902163
3.3315907 -6.4261379 1.2656525
5.9845452 -15.688292 2.0562654
-4.3935461 -6.3156309 1.4297519
-13.539827 -15.679612 2.4937768
3.3022902 -6.3768044 1.2611001
5.9371166 -15.656274 2.0526712
-4.3983059 -6.2891726 1.428486
-13.604256 -15.665562 2.4966252
3.2865012 -6.3812656 1.2611001
5.9012489 -15.681579 2.0538692
-4.4359951 -6.298512 1.4311762
-13.681482 -15.670134 2.5012934
3.2778788 -6.4069233 1.2629371
5.8635383 -15.689099 2.0536296
-4.4759245 -6.3110476 1.4341828
-13.73747 -15.65584 2.5036669
3.2604084 -6.3986387 1.2618988
5.8329911 -15.716763 2.0551472
-4.505322 -6.3092785 1.4357651
-13.7924 -15.631445 2.5054076
3.2473869 -6.4133186 1.2627773
-4.5046682 -6.2796688 1.4340246
-13.871907 -15.637333 2.5103133
3.2255068 -6.3908205 1.262969
5.74262 -15.688479 2.057116
-4.5447435 -6.2918549 1.437031
-13.947983 -15.642353 2.5149813
3.2164841 -6.4134111 1.2645738
5.7091708 -15.705557 2.0577581
-4.5894156 -6.3048677 1.4403542
-14.019596 -15.633732 2.518621
3.1993523 -6.4129467 1.2641726
5.6699762 -15.71904 2.0579987
-4.5844793 -6.2710705 1.4381388
-14.068898 -15.608717 2.520045
3.1707885 -6.364121 1.2596791
5.6384039 -15.749527 2.0597641
-4.6525311 -6.3101315 1.4443103
-14.152154 -15.619797 2.5255046
3.166106 -6.4035749 1.2627282
5.1344957 -13.960878 1.9065835
-4.6465816 -6.2730522 1.4418576
-14.199543 -15.586636 2.5263748
3.1475775 -6.3973165 1.2618456
5.5568852 -15.746611 2.0578382
-4.6874151 -6.282721 1.444785
-14.28592 -15.594151 2.5318341
3.1270318 -6.3804798 1.2600803
5.2465272 -14.690826 1.9671657
-4.7119184 -6.2786884 1.4434774
-14.364256 -15.599326 2.5303071
3.1125133 -6.3821564 1.2599199
5.2305193 -14.767187 1.9729431
-4.7325306 -6.2685132 1.4441081
-14.426322 -15.582597 2.5329876
3.0932848 -6.3699284 1.2585557
5.4344068 -15.736528 2.0545483
-4.8080111 -6.3107395 1.4508885
-14.49755 -15.574396 2.5366931
3.0816042 -6.3878756 1.2597593
5.3975015 -15.752724 2.05511
-4.802186 -6.2773571 1.4486809
-14.526412 -15.531445 2.5359836
3.0652297 -6.3818822 1.2589569
5.3588796 -15.749199 2.0540669
-4.8601675 -6.301106 1.4534115
-14.650726 -15.570141 2.5454445
3.0505745 -6.3904591 1.2593582
5.3190517 -15.759898 2.0541472
-4.895896 -6.3058043 1.4557767
-16.496773 -17.236115 2.7468057
3.0366035 -6.3968267 1.2595989
5.2774024 -15.749907 2.0525424
-4.8771439 -6.2603807 1.45215
-16.224827 -16.90295 2.7122731
3.0220759 -6.3982887 1.2594383
5.246737 -15.779227 2.0543077
-4.9496069 -6.296905 1.4584572
-16.315548 -16.90143 2.7175555
3.0098093 -6.4172826 1.2595135
5.2064376 -15.787989 2.0511732
-4.9697771 -6.2866621 1.4590881
-16.27836 -16.787086 2.7090406
2.988719 -6.393218 1.2571919
5.1637607 -15.772953 2.0491719
-4.9786372 -6.2670727 1.4585361
-16.319931 -16.749378 2.7094347
2.9796546 -6.4182816 1.2590332
5.1350675 -15.811536 2.0517335
-5.0429034 -6.295013 1.4638973
-16.322443 -16.666229 2.7050197
2.9603162 -6.4067206 1.2577523
5.0901141 -15.799828 2.0499723
-5.066699 -6.2877913 1.4649223
-16.338032 -16.601717 2.7024179
2.9447751 -6.4062338 1.257432
5.0537572 -15.812016 2.0502925
-5.0971155 -6.2876787 1.4667356
-16.440365 -16.619556 2.7095137
2.9245634 -6.3818235 1.2551105
5.0165334 -15.813337 2.0497322
-5.1278586 -6.2842364 1.4683913
-16.507914 -16.595869 2.7122731
2.9125118 -6.40242 1.2565515
4.9711051 -15.798437 2.0477309
-5.1594448 -6.2825732 1.4710678
-16.621468 -16.616564 2.7225788
2.888185 -6.3638897 1.2530291
4.9315867 -15.803059 2.0474105
-5.2015505 -6.2925272 1.4741462
-16.683701 -16.596865 2.7252626
2.8809049 -6.3983107 1.2556708
4.8940248 -15.802184 2.0466902
-5.2478013 -6.3036137 1.4775405
-16.771572 -16.593561 2.7303934
2.8555808 -6.3539457 1.2516682
4.8563285 -15.81518 2.0470903
-5.2548561 -6.2795968 1.4766722
-16.914118 -16.638409 2.7414441
2.846405 -6.3857102 1.2540698
4.8171949 -15.821416 2.0469303
-5.2854714 -6.2788057 1.4784877
-16.028673 -15.77959 2.6415129
2.8305809 -6.3800497 1.2533493
4.7804408 -15.824079 2.04653
-5.3331995 -6.2894411 1.4819608
-17.355759 -16.866293 2.7805169
2.8161464 -6.389966 1.2539096
4.7442741 -15.85236 2.0482111
-5.3637571 -6.2870865 1.4836974
-17.471687 -16.887671 2.7887261
2.8036096 -6.4034281 1.2547903
4.7050185 -15.850381 2.0474105
-5.4157791 -6.3044686 1.487802
-17.603838 -16.925766 2.7988298
2.789156 -6.4044352 1.2534328
4.6688538 -15.855886 2.0442052
-5.4115596 -6.2692623 1.4856708
-17.738865 -16.955887 2.8086965
2.7652395 -6.3664989 1.2499985
4.6232758 -15.837111 2.0419691
-5.4827056 -6.3015728 1.4917487
-17.816427 -16.942089 2.8127222
2.7484269 -6.3578773 1.24904
4.4529004 -15.157356 1.984544
-5.4825706 -6.2733793 1.4902489
-18.090343 -17.099823 2.8379025
2.7364497 -6.3710861 1.2499186
4.4005537 -15.069308 1.9766369
-5.4803658 -6.2400413 1.4883544
-18.168669 -17.078697 2.8416123
2.7230234 -6.3865156 1.2509568
4.3694768 -15.11484 1.9798317
-5.4909849 -6.220077 1.4879599
2.706423 -6.3787336 1.2500782
4.3282108 -15.090885 1.9772758
-5.5054364 -6.2045417 1.4880388
2.69485 -6.394732 1.2511964
4.2921891 -15.08666 1.9763973
-5.541832 -6.2040067 1.4875915
-18.480352 -17.094345 2.8541403
2.6755483 -6.3784661 1.2495991
4.252636 -15.08695 1.9758384
-5.6583023 -6.2726765 1.4983673
-18.570652 -17.088219 2.8594103
2.6600721 -6.3763051 1.2491997
4.2197061 -15.107706 1.9770362
-5.6953082 -6.2754498 1.5008056
-18.6684 -17.091171 2.865624
2.6413107 -6.3519564 1.2469635
4.1794991 -15.079256 1.9741611
-5.7303514 -6.2728906 1.5028505
-18.759869 -17.078606 2.8706579
2.6269202 -6.3623781 1.2476025
4.1411796 -15.085957 1.9741611
-5.7543411 -6.2622156 1.5037944
-18.844538 -17.063297 2.8751411
2.6173329 -6.3976088 1.2503178
4.1101699 -15.126856 1.9770362
-5.7861991 -6.260272 1.5056822
-18.902718 -17.03244 2.8771861
2.6013105 -6.388484 1.2493595
4.0761614 -15.133617 1.9771161
-5.8282833 -6.2641964 1.5085137
-19.045483 -17.063992 2.8877258
2.5801647 -6.3554115 1.2475853
4.0311174 -15.091576 1.976002
-5.8462629 -6.2482996 1.5088284
-19.071461 -16.999765 2.8860741
2.5709848 -6.3944073 1.2506274
3.9981146 -15.121675 1.9780033
-5.8850069 -6.251523 1.5114239
-18.700558 -16.62108 2.8435218
2.5553641 -6.3870831 1.2498269
3.9653502 -15.135868 1.9787238
-5.9384203 -6.2628322 1.5153567
-19.017357 -16.7896 2.871995
2.5421412 -6.4059525 1.2511878
3.9297805 -15.16028 1.9802449
-5.9603987 -6.2510076 1.5161433
-19.386662 -17.004402 2.906131
2.5220532 -6.3736439 1.2483058
3.8935084 -15.162045 1.9799247
-6.0259352 -6.2750216 1.5214918
-19.498981 -17.015089 2.9137607
2.5103946 -6.3912072 1.2495867
3.8597007 -15.170235 1.9801648
-6.0331049 -6.2487988 1.5206265
-19.612465 -17.016247 2.9209969
2.4913731 -6.3724461 1.2478255
3.8188229 -15.160711 1.978884
-6.0642624 -6.2439251 1.522357
-19.732819 -17.028839 2.9292557
2.4784839 -6.3861871 1.2487862
3.7815747 -15.155466 1.9780033
-6.0877991 -6.2341189 1.5261643
-19.846649 -17.039001 2.944859
2.4613321 -6.3670731 1.247025
3.7494531 -15.174959 1.9792042
-6.1385393 -6.24195 1.5297953
-20.654041 -17.58041 3.023478
2.4499989 -6.4001846 1.2495867
3.7090888 -15.168024 1.9781635
-6.1705446 -6.237299 1.5316107
-20.789265 -17.600075 3.0331082
2.4307015 -6.3695078 1.2468648
3.6701336 -15.149976 1.9762421
-6.2312541 -6.2559023 1.5364258
-20.885321 -17.592157 3.0388703
2.4235113 -6.4206343 1.2509477
3.6424694 -15.202003 1.9801648
-6.2305641 -6.2233338 1.5347681
-20.977182 -17.57029 3.0436854
2.3993385 -6.3620653 1.2459042
3.5991068 -15.172598 1.9772828
-6.2407818 -6.2004285 1.5342946
-21.07206 -17.553783 3.048974
2.3826282 -6.3525343 1.2449436
3.5609469 -15.169889 1.9766424
-6.2172785 -6.1542244 1.5305057
-21.125744 -17.512356 3.0503948
2.3716934 -6.3775458 1.2468648
3.5292134 -15.193729 1.9782434
-6.2668686 -6.1613598 1.5340577
-18.546719 -15.468573 2.7835953
2.3581064 -6.3920717 1.2479055
3.4916577 -15.195667 1.9780033
-6.2940054 -6.1512909 1.5353208
2.3383582 -6.3582864 1.2449436
3.4516668 -15.1782 1.976162
-6.3231235 -6.1449633 1.5368993
2.3262837 -6.3754902 1.2462244
3.4204931 -15.207601 1.9782434
-6.3728828 -6.1515799 1.5404515
-18.838779 -15.457577 2.8019872
2.3119075 -6.3841166 1.2467848
3.3829246 -15.209266 1.9780033
-6.4063139 -6.1457973 1.542346
-17.278559 -14.219978 2.6405656
2.2948511 -6.370481 1.2455039
3.3404198 -15.169277 1.9743209
-6.4433327 -6.1448846 1.544714
-17.276203 -14.151219 2.6370924
2.2786944 -6.3537626 1.2439829
3.3077316 -15.186844 1.9754415
-6.4775629 -6.1382065 1.543751
-18.879566 -15.254705 2.7875197
2.2713385 -6.4290676 1.250067
3.2736526 -15.230938 1.9787238
-6.5356407 -6.1511836 1.5481558
-18.976744 -15.250573 2.7936547
2.2517464 -6.3872004 1.2464646
3.2329626 -15.191447 1.9751213
-6.5814543 -6.1561012 1.5513806
-19.048973 -15.23085 2.7974303
2.238853 -6.3993936 1.2473452
3.2018137 -15.224258 1.9775229
-6.6432247 -6.1687689 1.5560212
-19.173615 -15.239752 2.8060036
2.2251737 -6.4214253 1.2490263
3.1649771 -15.24585 1.9789639
-6.7347813 -6.2049212 1.5637294
-20.836538 -16.362024 2.9680326
2.2081347 -6.4007101 1.247185
3.127893 -15.238008 1.9780033
-6.8267751 -6.2420378 1.5715163
-20.950283 -16.36553 2.975662
2.1922748 -6.3847313 1.2457441
3.0914006 -15.22122 1.9763222
-6.8715734 -6.2412977 1.5744264
-21.053736 -16.351366 2.981797
2.1789663 -6.4115 1.2478255
3.0541587 -15.239634 1.9775229
-6.9041605 -6.2341046 1.5762355
-21.147831 -16.336617 2.987303
2.1639071 -6.4092093 1.2457341
3.0188942 -15.24931 1.9736776
-6.9815178 -6.2595921 1.5825279
-21.246807 -16.328178 2.993438
2.146966 -6.3805184 1.2432611
2.9843545 -15.251635 1.9735978
-7.0081892 -6.2453761 1.5836291
-21.352871 -16.314472 2.999809
2.1322393 -6.3936195 1.2442183
2.9463944 -15.263966 1.9743159
-6.9887786 -6.20012 1.5802469
-21.44072 -16.290825 3.0045283
2.1131027 -6.3513746 1.2406285
2.905231 -15.22469 1.9708056
-7.06319 -6.2227221 1.5862247
-21.561495 -16.296253 3.0127871
2.1048634 -6.418541 1.2460532
2.8738751 -15.262628 1.9736776
-7.0876503 -6.207931 1.5871685
-21.627834 -16.256914 3.0153828
2.089232 -6.4159732 1.2457341
2.836359 -15.263889 1.9735181
-7.1473842 -6.217319 1.5915732
-21.754284 -16.258698 3.0238774
2.0732989 -6.4094849 1.245096
2.8005924 -15.286398 1.9751136
-7.1980381 -6.2226248 1.5951914
-21.860943 -16.252901 3.0307205
2.0597339 -6.4174166 1.2456543
2.76722 -15.30374 1.9763103
-7.2440424 -6.2208233 1.5981803
-21.960226 -16.231724 3.0363836
2.0401826 -6.37111 1.2417454
2.7257824 -15.27379 1.9735978
-7.2945938 -6.2243352 1.6017196
-22.078262 -16.229393 3.0441704
2.0271018 -6.3925991 1.2434206
2.6909995 -15.292046 1.9748743
-7.3018475 -6.1996713 1.6010904
-22.153709 -16.201136 3.0479457
2.0140879 -6.4081936 1.2446172
2.6562443 -15.291671 1.9746349
-7.3576488 -6.2038774 1.6050231
-22.286304 -16.200985 3.0568337
1.994704 -6.3588305 1.240469
2.6160965 -15.275981 1.9731193
-7.4188681 -6.2138662 1.6095852
-22.428959 -16.21348 3.0669801
1.9823527 -6.3928461 1.2431812
2.5817151 -15.30175 1.9750338
-7.4804249 -6.2249975 1.6142259
-22.518353 -16.193274 3.0720928
1.9675291 -6.382122 1.242224
2.546833 -15.299179 1.9746349
-7.5364866 -6.2284455 1.6181586
-22.628613 -16.17651 3.0787785
1.9511917 -6.3744802 1.2403351
2.5070562 -15.287319 1.9705551
-7.5654316 -6.2163129 1.6195743
-22.722874 -16.155399 3.0842056
1.9389129 -6.414237 1.2435186
2.4718995 -15.303122 1.9716692
-7.6019526 -6.210269 1.6217766
-22.815647 -16.136257 3.0896327
1.9240682 -6.4024353 1.2424841
2.4395123 -15.34305 1.9747732
-7.6353054 -6.1982737 1.623507
-22.927723 -16.119282 3.0964758
1.9074686 -6.3897228 1.2413697
2.4003553 -15.342333 1.9745345
-7.6650648 -6.1863241 1.6250014
-24.677471 -17.165335 3.2611003
1.894052 -6.4138379 1.2432799
2.3649678 -15.357885 1.9756486
-7.6677895 -6.1569128 1.6239004
-24.782639 -17.14402 3.267314
1.8793967 -6.4155674 1.2433596
2.3282876 -15.349052 1.9747732
-7.7505703 -6.1774511 1.6304287
-24.891113 -17.120811 3.2736852
1.8626158 -6.3852057 1.2408127
2.2914186 -15.365475 1.9759672
-7.814827 -6.1857505 1.6319653
-23.612303 -16.21629 3.1386433
1.8477924 -6.3946638 1.241529
2.2534165 -15.358473 1.9752507
-7.8654842 -6.1876345 1.6354921
-25.103951 -17.077547 3.27721
1.8325934 -6.369029 1.2393801
2.2171741 -15.324024 1.972306
-7.9154329 -6.1850467 1.6387839
-25.215826 -17.051527 3.283715
1.817889 -6.3959441 1.241529
2.1803856 -15.379134 1.9766834
-7.960165 -6.1814814 1.6416838
-25.331135 -17.034317 3.2908473
1.8033762 -6.4004087 1.2418473
2.1446733 -15.393195 1.9777179
-8.0051937 -6.179163 1.6446619
-25.455652 -17.025913 3.2989981
1.7896047 -6.4096808 1.2425636
2.108614 -15.358485 1.9747732
-8.0652132 -6.1821012 1.6488943
-25.53624 -16.979038 3.302525
1.7733181 -6.3975801 1.241529
2.0709291 -15.400682 1.978116
-8.1150532 -6.1810122 1.6522644
-26.777039 -17.652231 3.4160118
1.7578785 -6.3727527 1.2394596
2.0344162 -15.393082 1.9773996
-8.1602221 -6.1781092 1.6552426
-26.876787 -17.623623 3.4216549
1.7441571 -6.3837252 1.2420914
1.9996023 -15.392779 1.9816687
-8.2445602 -6.194984 1.6617477
1.7292082 -6.417233 1.244807
1.9600534 -15.377297 1.9803109
-8.3262405 -6.2123446 1.6680961
-27.167103 -17.605206 3.4408567
1.713861 -6.3903499 1.2425706
1.9243436 -15.398621 1.9819882
-8.2798672 -6.1535301 1.6624531
-27.234478 -17.555695 3.4434431
1.7001691 -6.4081774 1.2440083
1.8898621 -15.41399 1.9831862
-8.3310289 -6.1496067 1.6658232
-27.406151 -17.557123 3.4553561
1.6842685 -6.4065452 1.2438486
1.8503428 -15.396274 1.9816687
-8.4285221 -6.1742716 1.6735823
-27.52533 -17.530224 3.4624882
1.6693847 -6.4311376 1.2458453
1.8130345 -15.420279 1.9835856
-8.4622259 -6.1632423 1.6754633
-25.503166 -16.243666 3.2696075
1.6548448 -6.4031243 1.2435291
1.7783031 -15.428581 1.9842246
-8.5171976 -6.1620121 1.6792252
-27.742895 -17.470213 3.4751065
1.6393411 -6.3819027 1.2417719
1.7402577 -15.403747 1.9821479
-8.5470171 -6.1458015 1.680636
-27.84874 -17.434055 3.4809847
1.6241553 -6.3849745 1.2420115
1.7023787 -15.383684 1.9804707
-8.5386705 -6.1098804 1.6785983
1.6103494 -6.4230375 1.2451265
1.6679611 -15.436502 1.9847834
-8.5625048 -6.0901332 1.6794604
1.594945 -6.3997579 1.2432096
1.6302052 -15.44351 1.9853425
-8.6335573 -6.0974789 1.6847115
-29.239716 -17.947958 3.5986252
1.5796919 -6.4017448 1.2433693
1.5923843 -15.428036 1.9840648
-8.7661114 -6.1422334 1.6957624
-29.356392 -17.92062 3.605679
1.5656281 -6.3764424 1.2412928
1.5575428 -15.411499 1.982707
-8.803319 -6.1280794 1.6978002
-29.516254 -17.905571 3.6162596
1.5497789 -6.395874 1.2428901
1.518373 -15.411414 1.982707
-8.8554974 -6.1248631 1.7013271
-28.649277 -17.317022 3.5321634
1.5351653 -6.3880191 1.2422512
1.4817691 -15.468666 1.9874191
-8.9207335 -6.130065 1.7061079
-29.709129 -17.821575 3.6264484
1.5212224 -6.3742943 1.2411331
1.4470901 -15.43533 1.9847038
-8.9919863 -6.134347 1.7112806
-29.898945 -17.821398 3.6397719
1.5051308 -6.4033418 1.2435291
1.4073968 -15.477781 1.9882178
-9.0324249 -6.1237812 1.7137103
-29.978394 -17.766838 3.6432204
1.4903898 -6.4080324 1.2439284
1.3711362 -15.464695 1.9871795
-9.0757189 -6.115952 1.7164533
-30.09528 -17.736685 3.6502743
1.4761992 -6.4136696 1.2444077
1.336122 -15.46906 1.9875789
-9.1283932 -6.1091118 1.7199018
-30.295689 -17.740086 3.6645384
1.4605322 -6.4017258 1.2434492
1.2963295 -15.494675 1.9897354
-9.1301899 -6.0768867 1.7222974
-30.360689 -17.676424 3.6771843
1.4460976 -6.3897667 1.2424908
1.260479 -15.463806 1.9872594
-9.0999403 -6.0286484 1.718286
-30.490498 -17.651802 3.6854432
1.4319065 -6.3953004 1.24297
1.2247443 -15.498081 1.9901347
-9.1491108 -6.0196214 1.7214323
-30.623642 -17.616505 3.6935446
1.4157307 -6.4085417 1.2440882
1.1848841 -15.515619 1.9916523
-9.213192 -6.0196943 1.7259943
-30.767166 -17.590172 3.7027471
1.400887 -6.3925686 1.2428102
1.1478806 -15.479586 1.9887769
-9.2745171 -6.0206366 1.7303989
-29.33432 -16.729641 3.5678542
1.3857663 -6.4271832 1.2456856
1.1122928 -15.499001 1.9904542
-9.3309879 -6.0160503 1.734253
-29.438917 -16.686424 3.5736747
1.3711419 -6.4053011 1.2439284
1.0745158 -15.492947 1.9900548
-9.4296913 -6.0334711 1.7419612
-29.544355 -16.643242 3.5795736
1.3570354 -6.3717127 1.241213
1.0372095 -15.474154 1.9886172
-9.5550203 -6.0670252 1.7521863
-29.654392 -16.609688 3.5861807
1.3419933 -6.3985815 1.2416881
1.000597 -15.517011 1.9878256
-9.6606636 -6.0855589 1.7604451
-29.785534 -16.57526 3.5942822
1.3272843 -6.3697639 1.2393801
0.96244097 -15.483389 1.9851992
-9.6832514 -6.0632067 1.7612317
-29.987906 -16.584805 3.609148
1.3122754 -6.3788862 1.240176
0.92517662 -15.501335 1.9867911
-9.7986898 -6.0900068 1.7705128
-30.062603 -16.531416 3.61253
1.2967193 -6.4123068 1.2429615
0.88863182 -15.533842 1.9895766
-9.8406181 -6.0744228 1.7729511
-30.186077 -16.491291 3.6199236
1.2819963 -6.3872709 1.2409718
0.84910107 -15.532996 1.9896562
-9.9187298 -6.0798321 1.7787716
-30.321196 -16.464237 3.6286542
1.2665362 -6.4030857 1.2423248
0.81152773 -15.551636 1.9913275
-9.9459991 -6.0605145 1.7800303
-30.45134 -16.437946 3.6370704
1.2525489 -6.400425 1.2421657
0.77618742 -15.553736 1.9916458
-10.024051 -6.0625048 1.7794957
-30.580458 -16.399031 3.62763
1.2369714 -6.3947206 1.2417676
0.73713112 -15.542879 1.9909296
-10.124141 -6.0778885 1.7872362
-30.762732 -16.393837 3.6405311
1.2226484 -6.388072 1.2412902
0.70038271 -15.543753 1.9911683
-10.133151 -6.0488977 1.7868452
-30.870394 -16.354588 3.6468642
1.2067487 -6.4183455 1.243837
0.66451311 -15.554339 1.992203
-10.212702 -6.0505867 1.7926311
-31.050743 -16.339191 3.6592963
1.1927254 -6.3872662 1.2413697
0.62317085 -15.581085 1.9945908
-10.283361 -6.0503073 1.7977135
-31.211544 -16.321104 3.6702425
1.1775253 -6.3950844 1.2420861
0.58537436 -15.596252 1.9960232
-10.347407 -6.0478735 1.8022485
-33.206337 -17.201019 3.8452277
1.1642969 -6.3815374 1.2410514
0.55227089 -15.561895 1.9933968
-10.42193 -6.0459895 1.8075652
-33.333302 -17.151388 3.8526556
1.1458127 -6.4193029 1.2442349
0.51029348 -15.594162 1.9962621
-10.457378 -6.0263243 1.8094418
-33.4674 -17.108788 3.8608654
1.1293945 -6.4337568 1.2455084
0.47302771 -15.578851 1.9952273
-10.565449 -6.0441351 1.8178861
-33.625496 -17.0854 3.8714991
1.1178248 -6.3977809 1.2426431
0.437325 -15.583076 1.9957845
-10.612368 -6.0294456 1.8207791
-33.65152 -16.990189 3.8700917
1.1019809 -6.4043961 1.2432799
0.39717436 -15.606407 1.9979334
-10.694491 -6.0311995 1.8267994
-33.798733 -16.95237 3.8794742
1.0885577 -6.3799205 1.2413697
0.36073875 -15.581116 1.9961028
-10.737706 -6.0171385 1.829458
-33.952477 -16.925272 3.8897169
1.0746806 -6.3768539 1.2412106
0.30807829 -15.792685 2.0136917
-10.820503 -6.0170717 1.8354783
-34.065193 -16.865898 3.8958938
1.0562911 -6.4065857 1.2437575
0.17583895 -16.885345 2.1036263
-10.896095 -6.0161304 1.8409514
-34.211761 -16.830101 3.9053545
1.0430326 -6.3888493 1.2424045
0.13411474 -16.904257 2.1054568
-10.979848 -6.0200434 1.8498473
-35.582321 -17.362127 4.0310979
1.0271702 -6.4079771 1.2440758
0.096467972 -16.894119 2.1048996
-11.038098 -6.0075073 1.8536878
-35.78756 -17.339764 4.045362
1.013788 -6.3794098 1.2418473
0.0531106 -16.894123 2.1052179
-11.111216 -6.0043831 1.8589389
-35.936497 -17.299461 4.0549235
0.99762487 -6.3945298 1.2432003
0.0080227852 -16.946644 2.1098342
-11.183838 -6.002161 1.8641899
-35.599556 -17.043156 4.0216928
0.98262548 -6.4028826 1.2439961
-0.026133537 -16.899405 2.1062527
-11.286583 -6.0087175 1.871949
-36.244942 -17.217369 4.074831
0.96859384 -6.3829355 1.2424841
-0.0716362 -16.920399 2.1083219
-11.345676 -5.9982185 1.875946
-36.407272 -17.181129 4.0855684
0.95240045 -6.3969674 1.2437575
-0.1177845 -16.97839 2.1134155
-11.425596 -5.9981794 1.8818243
-36.560909 -17.144703 4.0956788
0.9396286 -6.3829422 1.2427227
-0.15730476 -16.985107 2.114291
-11.4912 -5.9869938 1.8862917
-34.417446 -16.082947 3.9032683
0.9253571 -6.3669119 1.2397684
-0.20109653 -16.985809 2.1098571
-11.571446 -5.9833908 1.8920913
-34.551327 -16.034649 3.911576
0.90556121 -6.4078598 1.2432579
-0.24557257 -17.007465 2.1119983
-11.593521 -5.9571176 1.8928752
0.8908186 -6.4121165 1.2437338
-0.29006815 -17.057417 2.1164396
-11.562117 -5.9047174 1.8888781
0.87707067 -6.396862 1.2426234
-0.33495617 -17.079805 2.1186602
-11.601212 -5.8828125 1.8910725
0.86182499 -6.3951125 1.2426234
-0.37750006 -17.080803 2.1191361
-11.66428 -5.8739552 1.8954616
-35.049324 -15.83644 3.9420638
0.84169436 -6.444694 1.2468268
-0.42610359 -17.160368 2.1260359
-11.719126 -5.8568544 1.8989885
0.82947803 -6.4118638 1.2442889
-0.49258137 -17.343569 2.1415009
-11.80959 -5.8574719 1.9071155
0.81692719 -6.3926806 1.2428614
-0.53502464 -17.351133 2.1425319
-11.886227 -5.8533936 1.9126866
-35.318798 -15.635022 3.9596074
-0.53957939 -17.07004 2.1198499
-12.065239 -5.8868475 1.9270463
-39.61644 -17.304089 4.3311543
0.78494024 -6.4053326 1.2442095
-0.58142471 -17.05197 2.1188188
-12.21732 -5.9113107 1.9391305
-39.798508 -17.263592 4.3434739
0.77127075 -6.395709 1.2435751
-0.65657997 -17.3141 2.1407871
-12.268143 -5.8951445 1.9424262
-39.948357 -17.213776 4.3531251
-0.70553064 -17.382257 2.1468146
-12.350344 -5.8868723 1.9483113
-38.199963 -16.378941 4.1972089
0.73967361 -6.4042645 1.2446061
-0.7393198 -17.299147 2.14047
-12.458599 -5.8918071 1.9565504
-38.35677 -16.331352 4.2074885
0.72383046 -6.4106908 1.248287
-0.53845549 -15.544916 2.0040717
-12.550152 -5.8910904 1.9633772
-38.521069 -16.290554 4.2185526
0.71108055 -6.399087 1.2474892
-0.5699172 -15.513997 2.0019178
-12.635254 -5.8826742 1.9694977
-38.7117 -16.246149 4.2314997
-0.87227726 -17.344784 2.1539683
-12.694881 -5.8669381 1.9734995
-38.889355 -16.204689 4.2435837
0.68100429 -6.3918338 1.2472498
-0.91401386 -17.344658 2.1544468
-12.783517 -5.8623137 1.9800124
-39.099667 -16.175257 4.2584925
0.66436124 -6.4031625 1.2483666
-0.55914402 -14.665918 1.9329925
-12.87184 -5.8555617 1.9864469
-36.273449 -14.959105 4.0106115
-0.59528732 -14.662487 1.9331522
-0.99785805 -17.335188 2.1546862
-13.007439 -5.8666387 1.9969616
-39.497261 -16.095587 4.2860351
0.63399243 -6.3976035 1.248287
-1.0362387 -17.301796 2.1524525
-13.070301 -5.8523521 2.0012772
-39.686291 -16.059708 4.2992177
0.62171245 -6.3838906 1.2473296
-1.0748014 -17.291904 2.1521335
-13.196983 -5.8572578 2.0063977
-39.859032 -16.003189 4.297781
0.60454583 -6.3900647 1.2480476
-1.1174612 -17.276346 2.1514156
-13.292326 -5.8529139 2.0134346
-42.254227 -16.794634 4.5002103
0.59345412 -6.3656278 1.2462127
-1.1591167 -17.275618 2.1518941
-13.338891 -5.8314509 2.0163276
-42.42432 -16.743427 4.5115476
0.58399367 -6.3355045 1.2438993
-13.483733 -5.8415098 2.0275085
-42.594578 -16.677143 4.5224938
0.5705483 -6.3194861 1.2427824
-13.497083 -5.8055153 2.0275085
-42.738815 -16.610138 4.5314856
0.55365396 -6.3314681 1.243979
-13.630446 -5.8151875 2.0378294
-44.327164 -17.077208 4.6641712
0.53547931 -6.3540568 1.2460532
-13.739009 -5.8102231 2.0458827
-45.8881 -17.510756 4.7938852
0.51989198 -6.3505869 1.2436106
-1.3654442 -17.23877 2.1450543
-13.877707 -5.8189263 2.0565946
-46.116089 -17.464533 4.8098359
-1.4054108 -17.227848 2.1447368
-13.988514 -5.8186269 2.0649607
-46.35165 -17.42518 4.8265681
0.47790861 -6.4212847 1.2498834
-1.4728851 -17.380985 2.1579969
-13.980854 -5.7706146 2.0630841
-46.555519 -17.357952 4.8401728
0.46409154 -6.40694 1.2489306
-1.5579824 -17.599094 2.1767356
-14.07848 -5.7632418 2.0702775
-46.833199 -17.326258 4.8603454
-1.5316257 -17.221029 2.1460073
-14.156338 -5.750176 2.0758288
-42.855991 -15.807475 4.5185065
0.43247819 -6.4169846 1.250201
-1.5620775 -17.167908 2.1421959
-14.143847 -5.7002935 2.0735614
-43.11586 -15.768909 4.5371933
0.41353488 -6.4302769 1.2515508
-1.661952 -17.458183 2.1669691
-14.157373 -5.6612134 2.0735614
-1.6646328 -17.239729 2.1495008
-14.2674 -5.6585145 2.0818493
-1.7082644 -17.256134 2.1514859
-14.432918 -5.6707458 2.0947504
0.36968613 -6.4169035 1.2511537
-1.7408476 -17.198235 2.147357
-14.538626 -5.6619997 2.1025693
0.36253405 -6.3728361 1.2477396
-1.7256317 -16.900644 2.1232984
-14.584265 -5.6361203 2.1053841
-1.6625295 -16.388193 2.081295
-14.744145 -5.6427503 2.1177378
-44.101913 -15.365188 4.6017771
0.3310101 -6.3754382 1.2484541
-1.6927676 -16.323496 2.0766103
-14.950297 -5.6672306 2.1340792
-46.754272 -16.115257 4.8229713
0.31620646 -6.3734026 1.2485335
-1.8089557 -16.693142 2.1080534
-15.040451 -5.6546459 2.1406469
-50.739746 -17.291395 5.1566005
