# .PCD v0.7 - Point Cloud Data file format
VERSION 0.7
FIELDS x y z
SIZE 4 4 4
TYPE F F F
COUNT 1 1 1
WIDTH 794
HEIGHT 1
VIEWPOINT 0 0 0 1 0 0 0
POINTS 794
DATA ascii
0.041043922 0.19834103 0.11711787
0.033978038 0.19846861 0.11862286
0.025130389 0.19709636 0.11909281
0.060763676 0.20309909 0.10722895
0.057527222 0.21251372 0.10122401
0.067521632 0.20358428 0.098625898
0.062360518 0.20720871 0.1022074
0.058886405 0.21370611 0.094436869
0.068396047 0.20422848 0.092486247
0.049925048 0.21053863 0.10903557
0.042136952 0.21091466 0.11172608
0.052812539 0.20357019 0.11136368
0.043691192 0.20327124 0.11461444
0.051258635 0.21408729 0.10437018
0.04123025 0.21659459 0.10634916
0.056492027 0.20980747 0.10632932
0.032416578 0.21032736 0.11326788
0.023147585 0.20906761 0.11350096
0.033112355 0.20414932 0.11680472
0.022852562 0.20242491 0.1170454
0.031635389 0.21591815 0.1080667
0.021412518 0.21382836 0.1083337
0.04868925 0.21838659 0.098631039
0.039161909 0.22061303 0.099520557
0.033401299 0.22083217 0.098964222
0.018629637 0.21688129 0.10222038
0.018547421 0.19551818 0.11871564
-0.037730508 0.21056686 0.14108448
-0.030878121 0.22296432 0.13281354
-0.036561336 0.22350417 0.13594641
-0.029974174 0.21524696 0.13200293
-0.034905795 0.21502994 0.13811797
-0.042639725 0.21020266 0.14179842
-0.044995278 0.22189602 0.13618544
-0.046458419 0.21452934 0.13878407
-0.052345298 0.21262634 0.13435671
-0.029189268 0.20083347 0.13731347
-0.035126138 0.20310099 0.14033027
-0.028789543 0.1971835 0.13654967
-0.034413528 0.19488119 0.13820863
-0.02632069 0.20540203 0.13087378
-0.031666718 0.20744279 0.13729163
-0.026579585 0.19730408 0.12956938
-0.034008976 0.19107437 0.13322312
-0.043243084 0.2033889 0.14112695
-0.040714812 0.19569147 0.13801038
-0.048235606 0.20248246 0.1384262
-0.0530851 0.20331663 0.13469172
-0.045456223 0.19369015 0.13489887
-0.052753247 0.19519493 0.13269545
-0.023223892 0.2344 0.12316959
-0.022684725 0.23583701 0.12010656
-0.0077394852 0.26159522 0.096556164
-0.0092203785 0.26148233 0.096771188
-0.0075914781 0.25896314 0.096265413
-0.0038874105 0.24698013 0.09432295
-0.021157201 0.24100548 0.10492461
-0.012561291 0.25516382 0.09864115
-0.020016678 0.25215635 0.10009663
-0.012048498 0.24514526 0.098713525
-0.021057045 0.24595301 0.1027262
-0.028730163 0.23396982 0.12693228
-0.037832726 0.23323263 0.12851657
-0.02966948 0.23729269 0.12188168
-0.039130934 0.23683594 0.12326912
-0.044925798 0.23259817 0.12781565
-0.048634149 0.23483875 0.12243005
-0.054709818 0.23395938 0.11892822
-0.026614044 0.24200393 0.10489921
-0.027700579 0.24441679 0.10250504
-0.056317363 0.23447649 0.11623709
-0.02251396 0.22812459 0.12232665
-0.020518994 0.21762773 0.12088897
-0.021167591 0.23026232 0.11791659
-0.013683541 0.21741006 0.10934655
-0.018095305 0.22065978 0.11472055
0.015933668 0.20764267 0.11230348
0.013386351 0.20061636 0.11556442
0.0029435041 0.19970849 0.11428146
0.012028254 0.21063575 0.10709392
0.00093207113 0.20947185 0.10696475
0.0092006298 0.20625971 0.11076034
0.0023401738 0.20537399 0.1109193
-0.018035572 0.20866102 0.12137189
-0.0067010219 0.19898868 0.11553405
-0.016818106 0.19904253 0.1185223
-0.0090177795 0.20995072 0.1092082
-0.01400643 0.21106128 0.11430255
-0.0081856307 0.20451264 0.11252074
-0.013344246 0.20399295 0.11332383
-0.0065889214 0.24145387 0.091986962
-0.019240281 0.2336033 0.10561308
-0.013919721 0.21883124 0.10596433
-0.017125681 0.22457312 0.10566006
-0.012834638 0.2377709 0.096971408
-0.017260488 0.23419163 0.10010026
0.0095563484 0.2140462 0.10151073
0.00095771969 0.21312867 0.10214312
-0.0093303332 0.21469975 0.10267745
-0.02717522 0.22733352 0.12826423
-0.037186239 0.22932141 0.13229571
-0.025845105 0.21755421 0.12558642
-0.048200395 0.22715095 0.13077205
-0.053487323 0.22366373 0.1283841
-0.053898063 0.21663682 0.13090616
-0.052309796 0.23136267 0.12428757
-0.056364335 0.22803827 0.12160695
-0.057324044 0.2189794 0.11731942
-0.023376308 0.20965044 0.12648176
-0.024322955 0.19614936 0.12203902
-0.056145582 0.20593028 0.12961727
-0.055504147 0.19494906 0.12786865
-0.05918368 0.20848951 0.11664446
-0.059794445 0.20227355 0.11440417
-0.059012514 0.22731178 0.11555579
-0.058030389 0.21906541 0.11341923
-0.059478536 0.1993863 0.10803767
0.060903262 0.18920198 0.11301795
0.069762833 0.18007785 0.10868879
0.063851178 0.18265063 0.11303303
0.070379548 0.17441911 0.10785255
0.06518513 0.17302316 0.11240239
0.070577413 0.16638789 0.10572861
0.065546751 0.16335399 0.11002769
0.052132551 0.17701294 0.12107944
0.04530181 0.17761232 0.12360983
0.053549618 0.1907087 0.1161296
0.04411988 0.19105312 0.11727759
0.05549093 0.18192102 0.11804587
0.045732111 0.18312372 0.12047474
0.036049135 0.1775372 0.12646067
0.026722321 0.17638926 0.12737155
0.034417883 0.19083244 0.11900891
0.024452806 0.19021977 0.11972506
0.035182018 0.18408751 0.12061204
0.024473868 0.18291 0.12098498
0.054386895 0.16979666 0.11985457
0.046612181 0.16939458 0.12450026
0.056086369 0.16103674 0.11830232
0.047058847 0.15956037 0.12242018
0.058117822 0.17289744 0.11736879
0.06053618 0.16081198 0.11475106
0.036998656 0.16828699 0.12717783
0.026963506 0.16747923 0.12848069
0.03735508 0.15836023 0.12576334
0.027421886 0.15795955 0.12616821
0.070357159 0.15579738 0.10238644
0.065701395 0.15408684 0.10561933
0.06463664 0.14533791 0.10329934
0.06161195 0.13554886 0.099129975
0.054575898 0.15182199 0.11554886
0.047305301 0.15001532 0.11956687
0.052927509 0.143693 0.11256417
0.047495008 0.14076884 0.11521061
0.058900852 0.15149491 0.11144045
0.057266813 0.14231212 0.10903423
0.051983401 0.13773172 0.11051653
0.037762657 0.14881516 0.12209078
0.027655888 0.14864117 0.12183978
0.037808951 0.13946928 0.11769143
0.027698936 0.13962115 0.11730286
0.023673033 0.13561827 0.11366937
0.046087433 0.13430052 0.11210436
0.056577858 0.13372812 0.10235853
0.047881767 0.13115513 0.10631474
0.056426629 0.12702122 0.10053673
0.047248319 0.12564448 0.10379241
0.037996374 0.13354874 0.11346996
0.027272137 0.13001378 0.1131959
0.026178252 0.12309621 0.11183169
0.03725332 0.12964399 0.10835543
0.027773352 0.13066758 0.11096192
0.037597705 0.1245979 0.10685212
0.030634498 0.1235973 0.1096835
0.077395804 0.18624626 0.090555213
0.069216914 0.19388179 0.10310011
0.063449539 0.194814 0.1087542
0.071606621 0.18536635 0.10388
0.06739562 0.18694837 0.10860679
0.070832036 0.19709572 0.098418467
0.066928491 0.20044063 0.10264026
0.075100929 0.1881223 0.095597833
0.078402564 0.17854296 0.090372778
0.087994523 0.16624437 0.082230732
0.079710983 0.16915651 0.087295935
0.073759437 0.17573996 0.10194363
0.074009821 0.16593668 0.09978383
0.076962762 0.17823754 0.094648786
0.077558443 0.16798773 0.092468821
0.0765981 0.19006191 0.084053881
0.076228298 0.19216974 0.077738978
0.072218351 0.19880241 0.089184143
0.075147077 0.1932527 0.087044075
0.078507856 0.18153529 0.082120076
0.089017592 0.16731437 0.079775169
0.082569256 0.16808255 0.080279604
0.078272149 0.18190363 0.075831175
0.054870281 0.19590941 0.11296901
0.046518289 0.19614793 0.11473318
0.082950681 0.14862546 0.090007208
0.091006234 0.15984099 0.084137
0.083415829 0.15945579 0.087301157
0.091442227 0.15084277 0.082746446
0.087156095 0.14896202 0.087252885
0.073511131 0.15645181 0.098073207
0.070204839 0.1530713 0.10162304
0.074627213 0.14699748 0.092563935
0.068063721 0.14371565 0.098208264
0.077465802 0.15794399 0.089859679
0.077409402 0.15227835 0.089840136
0.081505984 0.1414905 0.088402264
0.089952618 0.1445224 0.078476809
0.0842489 0.14049955 0.082210585
0.074708872 0.13945493 0.089034714
0.065505348 0.1364868 0.094241597
0.063101642 0.1302221 0.091159694
0.074974336 0.13552059 0.08476989
0.068740852 0.13463324 0.086390994
0.072844364 0.13303061 0.081210218
0.066767275 0.13121814 0.083344996
0.093309321 0.16312671 0.077608556
0.080748253 0.16516721 0.08218462
0.094063535 0.15306902 0.076130137
0.09061788 0.14431031 0.075363271
0.085692868 0.13994278 0.074981481
0.060949478 0.13599256 0.098647214
0.060574163 0.12749355 0.095657416
0.018535143 0.17498404 0.12639931
0.014856981 0.18910518 0.11973005
0.005360113 0.18647704 0.11949547
0.014541994 0.1801022 0.12087797
0.0051485314 0.17908937 0.12051155
-0.0068153734 0.185883 0.1206101
-0.015614576 0.18517882 0.12168656
-0.0049608364 0.17865881 0.12023507
-0.014771254 0.17773291 0.12248855
0.017221363 0.16724533 0.12738596
0.011331527 0.16441745 0.12284354
0.017959574 0.15821776 0.12472361
0.011886029 0.17114058 0.12302008
0.0055475025 0.16932017 0.11843562
0.012614793 0.15728585 0.1176795
0.0056201238 0.15993254 0.11412754
-0.0044028875 0.16876327 0.1187092
-0.014101929 0.16759659 0.12140782
-0.0041830749 0.15899657 0.11559834
-0.013976959 0.158364 0.11718259
-0.024688851 0.18439998 0.12289655
-0.035754021 0.1885666 0.12859076
-0.024572644 0.1769748 0.12335579
-0.032993682 0.17624845 0.12229303
-0.043491159 0.18914084 0.12979829
-0.024161592 0.16688429 0.12213659
-0.032860741 0.16751836 0.12072745
-0.023580525 0.15849143 0.11763549
-0.030937793 0.16084398 0.1179694
0.020092821 0.14957041 0.12033557
0.02153359 0.14145608 0.11657814
0.014772449 0.14959653 0.11362091
0.0038208407 0.15124123 0.11100301
0.016996352 0.14019121 0.11102513
0.0019337803 0.14433359 0.10906692
-0.0032631611 0.14982045 0.11207868
-0.010845205 0.1534435 0.11286792
-0.0021636249 0.14283338 0.10929053
0.018130766 0.12729986 0.1151595
0.010834528 0.1257319 0.11453578
0.018496448 0.12202058 0.11516382
0.009985961 0.12168945 0.1147686
0.017155753 0.13330489 0.11098304
0.0072545735 0.13006872 0.10992436
0.0044992021 0.12241251 0.11089271
-0.0031369913 0.12823693 0.10713487
-0.012725644 0.12700862 0.11007994
-0.0025786799 0.12245052 0.10774446
-0.012081551 0.12109495 0.11140032
-0.020233996 0.12618762 0.11021537
-0.021138767 0.12075034 0.11059622
0.011531569 0.19366349 0.11821678
0.0034116576 0.19182619 0.1176303
-0.0052709985 0.19097979 0.11859123
-0.015707202 0.190707 0.12020174
-0.025993949 0.18971123 0.12133757
-0.035457511 0.18650329 0.12103627
-0.037978131 0.17813405 0.12023806
-0.043483544 0.18633451 0.11665697
-0.044063151 0.17788602 0.11605345
-0.048930191 0.18805043 0.1112306
-0.052966472 0.18652923 0.10605317
-0.049773812 0.17918311 0.11112288
-0.053209282 0.17948991 0.10664845
-0.037975051 0.16662535 0.11798482
-0.02696724 0.15509509 0.11394912
-0.035043385 0.15803047 0.11306252
-0.039927304 0.15577397 0.10520715
-0.043419518 0.16833751 0.11441958
-0.042242199 0.16134928 0.11072238
-0.049094923 0.16931053 0.10781747
-0.052780814 0.17257623 0.10455903
-0.045110531 0.1605925 0.1040308
-0.052540682 0.19165671 0.10494768
-0.053866774 0.18904915 0.10308112
-0.055213388 0.18260664 0.10208403
-0.05154293 0.16761294 0.099065103
-0.05452159 0.17328393 0.10115977
-0.047905315 0.16128331 0.096236609
-0.048830971 0.16236775 0.085552149
0.011246964 0.1485793 0.10772399
0.0075538796 0.15035141 0.10823985
0.011796498 0.14131269 0.10546724
0.0061628232 0.14131853 0.10502996
-0.0078956652 0.1476852 0.10987438
-0.014484921 0.15007727 0.10879096
-0.0044255201 0.13919935 0.10725228
-0.011862535 0.14111403 0.10383627
-0.018736983 0.14714904 0.1011567
-0.017256249 0.14429426 0.096981317
0.004153261 0.13463289 0.10456918
-0.0033468006 0.13341297 0.10600659
-0.012788061 0.13316509 0.10478285
-0.015846411 0.13639022 0.097915679
-0.019276861 0.14360571 0.082516938
-0.02144881 0.1440053 0.078825749
-0.019861428 0.13862108 0.080583848
-0.021484289 0.14031532 0.078953072
-0.024119988 0.15108752 0.10889536
-0.032716952 0.15276761 0.10774656
-0.026363911 0.14815208 0.099694014
-0.034853131 0.15133533 0.099852547
-0.024845904 0.14658706 0.094724201
-0.03129578 0.14771014 0.093215734
-0.042664371 0.15617034 0.097684525
-0.023552895 0.12804617 0.10585131
-0.026635749 0.1223115 0.1050609
-0.028892776 0.12120306 0.10037825
-0.037263002 0.15099315 0.093324587
-0.025875593 0.14608273 0.09068574
-0.031901155 0.14780319 0.092397414
-0.023568315 0.14487778 0.074647702
-0.044071883 0.15625077 0.094472401
-0.027283944 0.13369976 0.080026463
-0.032010723 0.13118154 0.079329059
-0.030738872 0.12891759 0.081468411
-0.032764301 0.12710457 0.080058284
-0.02675849 0.13729727 0.077183008
-0.033646353 0.1328636 0.077606589
-0.035792716 0.12899187 0.077415034
0.00871005 0.27893659 0.077878736
0.010593503 0.27005836 0.07641606
0.011575522 0.25604671 0.083071262
0.011657554 0.25409287 0.082902744
0.013284535 0.26195613 0.077868067
0.013005386 0.25504133 0.080417097
0.010806206 0.28027919 0.073772348
0.013466125 0.2735447 0.072223134
0.016496617 0.26638028 0.072079353
0.0011794722 0.27501363 0.088415772
-0.00046222692 0.27467096 0.088743746
0.0012199342 0.27169496 0.08830402
-0.0035788859 0.26695079 0.091797516
0.0055495673 0.27830631 0.083111607
0.004985495 0.27033997 0.081680819
-2.4698595e-05 0.26494139 0.0856269
-0.0112263 0.26324409 0.094781779
0.0048135263 0.25665441 0.085447818
-0.0035604187 0.25777522 0.089804411
0.0057934881 0.25095603 0.088119596
-0.0015295307 0.24843553 0.091109075
0.005758604 0.26212287 0.08188571
0.00013630028 0.26385784 0.085281484
-0.013124723 0.25769621 0.095378131
-0.019495629 0.25648141 0.096548371
-0.0083450675 0.25138029 0.093946442
-0.038199954 0.24780212 0.088227585
-0.042707026 0.24742389 0.091394484
-0.039127998 0.25485414 0.080468193
-0.044501256 0.25493369 0.08330141
-0.038584623 0.25157687 0.083995193
-0.045537535 0.25066411 0.086492725
-0.050201684 0.25361785 0.080132291
-0.049693055 0.24919307 0.083459184
-0.049731106 0.26864383 0.064263351
-0.053686481 0.2680316 0.063363396
-0.040108606 0.25941157 0.074189276
-0.046268355 0.2608436 0.075649984
-0.041024856 0.26291499 0.06903559
-0.048646521 0.26502424 0.069372386
-0.051908106 0.25733611 0.074301727
-0.051283024 0.25242746 0.077858761
-0.053627804 0.26381153 0.067127876
-0.0054628821 0.24183924 0.090635002
-0.04346098 0.27199572 0.054379743
-0.04911723 0.27363393 0.057659544
-0.047865707 0.28174385 0.049432103
-0.043439213 0.27808341 0.048372224
-0.048071958 0.27889261 0.051929168
-0.05484492 0.27206957 0.059062172
0.041043948 0.19834098 0.11711786
0.033978064 0.19846858 0.11862285
0.025130417 0.19709632 0.11909279
0.060763702 0.20309904 0.10722893
0.057527244 0.21251366 0.10122401
0.067521654 0.20358424 0.098625883
0.06236054 0.20720866 0.10220739
0.058886427 0.21370605 0.094436862
0.068396069 0.20422843 0.092486233
0.049925074 0.21053857 0.10903557
0.042136978 0.21091461 0.11172607
0.052812569 0.20357014 0.11136366
0.043691218 0.2032712 0.11461443
0.051258657 0.21408723 0.10437018
0.041230273 0.21659453 0.10634915
0.056492053 0.20980743 0.10632931
0.032416604 0.2103273 0.11326788
0.023147611 0.20906757 0.11350096
0.033112381 0.20414928 0.11680471
0.02285259 0.20242487 0.1170454
0.031635415 0.21591811 0.10806669
0.021412542 0.2138283 0.1083337
0.048689272 0.21838653 0.098631039
0.039161932 0.22061297 0.099520557
0.033401322 0.22083211 0.098964222
0.018629661 0.21688123 0.10222038
0.018547447 0.19551814 0.11871563
-0.037730478 0.21056682 0.14108449
-0.030878093 0.22296426 0.13281356
-0.036561307 0.22350411 0.13594642
-0.029974144 0.2152469 0.13200293
-0.034905765 0.2150299 0.13811797
-0.042639691 0.21020262 0.14179844
-0.044995248 0.22189598 0.13618547
-0.04645839 0.21452929 0.13878408
-0.052345268 0.21262629 0.13435672
-0.029189238 0.20083344 0.13731347
-0.035126105 0.20310096 0.14033027
-0.028789511 0.19718347 0.13654967
-0.034413494 0.19488114 0.13820863
-0.026320662 0.20540199 0.13087378
-0.031666689 0.20744275 0.13729164
-0.026579555 0.19730406 0.1295694
-0.034008946 0.19107433 0.13322312
-0.043243054 0.20338887 0.14112695
-0.040714782 0.19569144 0.13801038
-0.048235577 0.20248242 0.13842621
-0.053085074 0.2033166 0.13469173
-0.04545619 0.19369011 0.13489887
-0.052753218 0.19519489 0.13269545
-0.023223866 0.23439996 0.12316962
-0.022684699 0.23583695 0.12010658
-0.0077394666 0.26159516 0.096556194
-0.0092203598 0.26148227 0.096771218
-0.0075914594 0.25896305 0.096265443
-0.0038873912 0.24698006 0.094322972
-0.021157181 0.24100541 0.10492463
-0.012561271 0.25516376 0.09864118
-0.020016657 0.25215626 0.10009666
-0.012048478 0.24514519 0.098713547
-0.021057025 0.24595295 0.10272623
-0.028730137 0.23396976 0.12693229
-0.0378327 0.23323257 0.12851658
-0.029669454 0.23729263 0.1218817
-0.039130908 0.23683587 0.12326915
-0.044925772 0.23259811 0.12781568
-0.048634127 0.23483869 0.12243007
-0.054709796 0.2339593 0.11892825
-0.026614023 0.24200386 0.10489924
-0.027700558 0.24441671 0.10250507
-0.056317341 0.23447642 0.11623712
-0.022513933 0.22812453 0.12232666
-0.020518968 0.21762769 0.12088898
-0.021167565 0.23026226 0.11791661
-0.013683517 0.21741 0.10934657
-0.018095279 0.22065972 0.11472056
0.015933694 0.20764261 0.11230348
0.013386378 0.20061632 0.11556442
0.0029435304 0.19970845 0.11428145
0.012028278 0.21063569 0.10709392
0.00093209534 0.20947181 0.10696475
0.0092006549 0.20625965 0.11076034
0.002340199 0.20537394 0.1109193
-0.018035544 0.20866098 0.1213719
-0.0067009954 0.19898863 0.11553405
-0.01681808 0.19904248 0.1185223
-0.0090177553 0.20995066 0.1092082
-0.014006405 0.21106124 0.11430255
-0.0081856046 0.2045126 0.11252074
-0.01334422 0.2039929 0.11332384
-0.0065889023 0.2414538 0.091986984
-0.019240258 0.23360324 0.1056131
-0.013919698 0.21883118 0.10596434
-0.017125659 0.22457306 0.10566007
-0.012834619 0.23777083 0.09697143
-0.017260468 0.23419155 0.10010029
0.0095563717 0.21404614 0.10151073
0.00095774268 0.21312861 0.10214312
-0.0093303099 0.21469969 0.10267746
-0.027175194 0.22733347 0.12826426
-0.037186209 0.22932136 0.13229573
-0.025845077 0.21755417 0.12558644
-0.048200369 0.2271509 0.13077207
-0.053487297 0.22366367 0.12838411
-0.053898036 0.21663676 0.13090619
-0.05230977 0.23136263 0.1242876
-0.056364309 0.22803821 0.12160698
-0.057324018 0.21897934 0.11731944
-0.02337628 0.2096504 0.12648176
-0.024322927 0.19614932 0.12203902
-0.056145553 0.20593023 0.12961729
-0.055504121 0.19494902 0.12786867
-0.059183653 0.20848946 0.11664448
-0.059794419 0.20227349 0.11440419
-0.059012491 0.22731172 0.11555581
-0.058030367 0.21906535 0.11341926
-0.05947851 0.19938625 0.10803769
0.060903288 0.18920195 0.11301793
0.069762863 0.18007782 0.10868876
0.0638512 0.1826506 0.113033
0.070379578 0.17441908 0.10785252
0.065185159 0.17302313 0.11240236
0.070577443 0.16638786 0.10572858
0.065546781 0.16335396 0.11002766
0.05213258 0.17701291 0.12107942
0.04530184 0.17761229 0.1236098
0.053549644 0.19070867 0.11612958
0.044119909 0.19105308 0.11727757
0.055490959 0.18192098 0.11804584
0.045732141 0.18312368 0.12047472
0.036049169 0.17753717 0.12646064
0.026722353 0.17638923 0.12737152
0.034417909 0.19083241 0.11900889
0.024452833 0.19021973 0.11972506
0.035182048 0.18408749 0.12061202
0.024473898 0.18290995 0.12098496
0.054386925 0.16979663 0.11985454
0.046612211 0.16939457 0.12450023
0.056086402 0.16103671 0.11830229
0.047058877 0.15956034 0.12242015
0.058117852 0.17289741 0.11736877
0.060536209 0.16081195 0.11475103
0.036998685 0.16828696 0.12717782
0.026963538 0.1674792 0.12848067
0.037355114 0.15836021 0.12576331
0.027421918 0.15795954 0.12616818
0.070357181 0.15579735 0.10238641
0.065701425 0.15408681 0.10561929
0.06463667 0.14533788 0.1032993
0.061611976 0.13554883 0.099129938
0.054575928 0.15182196 0.11554883
0.047305334 0.15001529 0.11956683
0.052927542 0.14369299 0.11256413
0.047495041 0.14076883 0.11521057
0.058900882 0.15149489 0.11144041
0.057266843 0.14231209 0.10903419
0.051983431 0.13773169 0.11051649
0.03776269 0.14881514 0.12209075
0.02765592 0.14864115 0.12183975
0.037808985 0.13946927 0.1176914
0.027698968 0.13962114 0.11730282
0.023673065 0.13561825 0.11366934
0.046087462 0.1343005 0.11210433
0.056577887 0.13372809 0.10235848
0.047881797 0.13115512 0.1063147
0.056426659 0.12702119 0.10053668
0.047248349 0.12564446 0.10379236
0.037996404 0.13354872 0.11346991
0.027272167 0.13001376 0.11319587
0.026178282 0.1230962 0.11183165
0.03725335 0.12964398 0.10835539
0.027773382 0.13066757 0.11096188
0.037597734 0.12459788 0.10685208
0.03063453 0.12359729 0.10968345
0.077395827 0.18624622 0.090555191
0.069216937 0.19388175 0.10310008
0.063449569 0.19481395 0.10875418
0.071606643 0.1853663 0.10387997
0.06739565 0.18694834 0.10860676
0.070832059 0.19709568 0.098418452
0.066928513 0.20044059 0.10264024
0.075100958 0.18812226 0.095597811
0.078402594 0.17854291 0.090372749
0.087994553 0.16624433 0.082230702
0.079711005 0.16915646 0.087295905
0.073759466 0.17573991 0.1019436
0.074009843 0.16593663 0.099783793
0.076962784 0.1782375 0.094648764
0.077558465 0.16798769 0.092468783
0.076598123 0.19006185 0.084053859
0.076228321 0.19216968 0.077738956
0.072218373 0.19880237 0.08918412
0.0751471 0.19325264 0.08704406
0.078507878 0.18153524 0.082120053
0.089017615 0.16731432 0.079775132
0.082569279 0.16808252 0.080279574
0.078272164 0.18190359 0.075831152
0.054870307 0.19590937 0.11296899
0.046518315 0.1961479 0.11473317
0.082950704 0.14862543 0.090007164
0.091006264 0.15984096 0.084136963
0.083415858 0.15945576 0.08730112
0.091442257 0.15084274 0.082746401
0.087156124 0.14896199 0.087252848
0.073511161 0.15645178 0.09807317
0.070204869 0.15307127 0.10162301
0.074627236 0.14699747 0.09256389
0.068063751 0.14371563 0.098208219
0.077465825 0.15794396 0.08985965
0.077409431 0.15227832 0.089840099
0.081506014 0.14149049 0.088402219
0.08995264 0.14452237 0.078476764
0.08424893 0.14049952 0.082210541
0.074708901 0.13945492 0.089034677
0.06550537 0.13648677 0.094241552
0.063101672 0.13022208 0.091159657
0.074974366 0.13552056 0.084769845
0.068740875 0.13463321 0.08639095
0.072844386 0.13303058 0.081210174
0.066767305 0.13121812 0.083344951
0.093309343 0.16312666 0.077608518
0.080748282 0.16516718 0.082184583
0.094063558 0.15306899 0.0761301
0.090617903 0.14431028 0.075363226
0.08569289 0.13994275 0.074981436
0.060949508 0.13599253 0.09864717
0.060574189 0.12749352 0.095657371
0.018535174 0.17498401 0.12639929
0.014857009 0.18910514 0.11973004
0.0053601409 0.18647699 0.11949547
0.014542023 0.18010217 0.12087795
0.0051485603 0.17908932 0.12051154
-0.006815345 0.18588297 0.12061009
-0.015614547 0.18517877 0.12168656
-0.0049608075 0.17865877 0.12023506
-0.014771224 0.17773287 0.12248854
0.017221395 0.16724531 0.12738594
0.011331556 0.16441742 0.12284353
0.017959604 0.15821774 0.12472358
0.011886058 0.17114055 0.12302005
0.0055475314 0.16932014 0.1184356
0.012614823 0.15728582 0.11767948
0.0056201527 0.15993251 0.11412752
-0.0044028587 0.16876324 0.11870918
-0.0141019 0.16759656 0.12140781
-0.0041830461 0.15899654 0.11559831
-0.01397693 0.15836397 0.11718258
-0.024688821 0.18439993 0.12289655
-0.035753991 0.18856657 0.12859076
-0.024572616 0.17697477 0.12335578
-0.032993652 0.17624842 0.12229302
-0.043491129 0.18914081 0.12979829
-0.024161562 0.16688426 0.12213658
-0.032860711 0.16751833 0.12072744
-0.023580495 0.15849142 0.11763547
-0.030937765 0.16084395 0.11796939
0.020092851 0.14957039 0.12033554
0.02153362 0.14145605 0.11657811
0.014772478 0.1495965 0.11362088
0.0038208694 0.15124121 0.11100299
0.016996382 0.14019118 0.1110251
0.0019338088 0.14433356 0.1090669
-0.0032631324 0.14982043 0.11207866
-0.010845176 0.15344347 0.1128679
-0.0021635962 0.14283337 0.1092905
0.018130798 0.12729985 0.11515946
0.01083456 0.12573189 0.11453574
0.01849648 0.12202056 0.11516377
0.0099859927 0.12168945 0.11476856
0.017155783 0.13330488 0.110983
0.0072546033 0.13006869 0.10992433
0.0044992324 0.1224125 0.11089268
-0.0031369622 0.12823692 0.10713484
-0.012725614 0.1270086 0.11007991
-0.0025786504 0.1224505 0.10774442
-0.012081521 0.12109493 0.11140029
-0.020233966 0.12618761 0.11021534
-0.021138737 0.12075032 0.11059619
0.011531597 0.19366346 0.11821678
0.0034116851 0.19182616 0.11763029
-0.005270971 0.19097976 0.11859122
-0.015707174 0.19070695 0.12020174
-0.025993921 0.1897112 0.12133757
-0.035457484 0.18650325 0.12103628
-0.037978105 0.17813401 0.12023806
-0.043483518 0.18633448 0.11665697
-0.044063125 0.17788598 0.11605345
-0.048930164 0.18805039 0.1112306
-0.052966446 0.18652919 0.10605318
-0.049773786 0.17918307 0.11112288
-0.05320926 0.17948987 0.10664845
-0.037975021 0.16662532 0.11798482
-0.026967213 0.15509507 0.11394911
-0.035043359 0.15803044 0.11306251
-0.039927278 0.15577392 0.10520714
-0.043419491 0.16833746 0.11441958
-0.042242173 0.16134925 0.11072238
-0.049094897 0.16931048 0.10781747
-0.052780788 0.1725762 0.10455903
-0.045110505 0.16059247 0.1040308
-0.05254066 0.19165666 0.10494769
-0.053866748 0.18904909 0.10308114
-0.055213366 0.18260659 0.10208404
-0.051542908 0.16761291 0.099065103
-0.054521564 0.17328389 0.10115977
-0.047905292 0.16128328 0.096236609
-0.048830949 0.1623677 0.085552156
0.011246992 0.14857927 0.10772397
0.0075539076 0.15035138 0.10823983
0.011796526 0.14131267 0.10546722
0.0061628511 0.14131851 0.10502993
-0.0078956373 0.14768517 0.10987435
-0.014484893 0.15007725 0.10879094
-0.0044254917 0.13919932 0.10725226
-0.011862507 0.141114 0.10383625
-0.018736957 0.14714901 0.10115668
-0.017256223 0.14429423 0.096981302
0.0041532889 0.13463287 0.10456915
-0.0033467719 0.13341294 0.10600657
-0.012788033 0.13316506 0.10478283
-0.015846385 0.13639021 0.097915657
-0.019276839 0.14360568 0.082516924
-0.021448787 0.14400527 0.078825735
-0.019861406 0.13862103 0.080583833
-0.021484267 0.14031529 0.078953058
-0.02411996 0.15108749 0.10889535
-0.032716926 0.15276758 0.10774655
-0.026363885 0.14815205 0.099693999
-0.034853108 0.1513353 0.099852532
-0.02484588 0.14658703 0.094724186
-0.031295758 0.14771011 0.093215719
-0.042664345 0.15617029 0.097684518
-0.023552865 0.12804614 0.10585129
-0.026635721 0.12231148 0.10506087
-0.028892748 0.12120304 0.10037822
-0.037262976 0.15099312 0.093324579
-0.025875567 0.14608268 0.090685725
-0.031901132 0.14780314 0.092397399
-0.023568295 0.14487775 0.074647687
-0.044071857 0.15625075 0.094472393
-0.027283922 0.13369973 0.080026448
-0.032010701 0.13118151 0.079329044
-0.030738849 0.12891756 0.081468388
-0.032764278 0.12710454 0.080058262
-0.026758468 0.13729724 0.077182993
-0.033646334 0.13286357 0.077606574
-0.035792693 0.12899184 0.077415019
0.008710064 0.27893651 0.077878773
0.010593518 0.27005827 0.076416098
0.011575539 0.25604662 0.083071291
0.01165757 0.25409278 0.082902767
0.013284551 0.26195604 0.077868097
0.013005402 0.25504124 0.080417119
0.010806219 0.2802791 0.073772386
0.013466138 0.27354461 0.072223172
0.01649663 0.26638019 0.072079383
0.0011794886 0.27501354 0.088415809
-0.00046221045 0.27467087 0.088743776
0.0012199508 0.27169487 0.088304058
-0.0035788685 0.26695073 0.091797546
0.0055495827 0.27830622 0.083111644
0.0049855104 0.27033988 0.081680849
-2.4682166e-05 0.2649413 0.08562693
-0.011226282 0.263244 0.094781809
0.0048135431 0.25665432 0.08544784
-0.003560401 0.25777513 0.089804441
0.0057935058 0.25095594 0.088119626
-0.0015295122 0.24843545 0.091109097
0.0057586199 0.26212278 0.08188574
0.00013631671 0.26385778 0.085281514
-0.013124704 0.25769615 0.09537816
-0.019495608 0.25648135 0.096548408
-0.0083450489 0.25138021 0.093946472
-0.038199935 0.24780205 0.088227622
-0.042707007 0.24742381 0.091394521
-0.039127979 0.25485405 0.080468237
-0.044501241 0.2549336 0.083301447
-0.038584609 0.25157678 0.08399523
-0.045537516 0.25066406 0.086492762
-0.050201669 0.25361776 0.080132335
-0.049693041 0.249193 0.083459221
-0.049731094 0.26864371 0.064263403
-0.05368647 0.26803151 0.063363448
-0.040108595 0.25941148 0.074189313
-0.04626834 0.26084352 0.075650029
-0.041024845 0.2629149 0.069035634
-0.04864651 0.26502416 0.06937243
-0.051908091 0.25733602 0.074301772
-0.051283009 0.2524274 0.077858798
-0.053627793 0.26381144 0.067127928
-0.0054628635 0.24183917 0.090635024
-0.043460969 0.27199563 0.054379795
-0.049117219 0.27363384 0.057659596
-0.0478657 0.28174374 0.049432158
-0.043439206 0.27808329 0.04837228
-0.048071951 0.27889249 0.051929224
-0.054844912 0.27206945 0.059062224
