ply
format ascii 1.0
element vertex 397
property float x 
property float y
property float z
property float nx 
property float ny
property float nz
end_header
-33.957604 -57.778340 -26.347925 0.073437 -0.215091 0.973829 
-34.007030 -57.573113 -26.809273 0.081578 -0.226713 0.970539 
-34.340624 -57.884130 -26.379593 0.068437 -0.208113 0.975708 
-34.023033 -58.002393 -26.487988 0.092529 -0.235004 0.967580 
-33.734572 -58.097415 -26.622312 0.099473 -0.243659 0.964746 
-33.538332 -58.123517 -26.833378 0.099794 -0.244723 0.964444 
-34.402234 -58.212231 -26.341442 0.087233 -0.229968 0.969281 
-34.106570 -58.328457 -26.453846 0.099913 -0.243185 0.964820 
-34.793751 -58.329645 -26.330051 0.075569 -0.220071 0.972552 
-34.459739 -58.459544 -26.414450 0.098828 -0.242214 0.965176 
-35.174859 -58.520969 -26.370731 0.068956 -0.216493 0.973846 
-34.825553 -58.666833 -26.444579 0.093351 -0.238891 0.966549 
-34.537096 -58.761855 -26.578902 0.101686 -0.247626 0.963505 
-33.397451 -59.309615 -26.709613 0.103877 -0.261316 0.959648 
-33.095151 -59.411912 -26.828560 0.103927 -0.262764 0.959247 
-35.090570 -58.819706 -26.546941 0.093010 -0.241281 0.965988 
-34.755111 -58.958296 -26.636167 0.102475 -0.252224 0.962228 
-33.576669 -59.542057 -26.715501 0.103779 -0.265731 0.958445 
-33.002644 -59.732583 -26.983525 0.103729 -0.266462 0.958247 
-32.747825 -59.800325 -27.151983 0.103727 -0.266463 0.958248 
-32.490229 -59.716012 -27.719905 0.103728 -0.266462 0.958248 
-33.474419 -59.967696 -26.949630 0.103728 -0.266463 0.958247 
-33.208804 -60.061730 -27.088218 0.103727 -0.266463 0.958247 
-32.939173 -60.136585 -27.241508 0.103728 -0.266463 0.958247 
-32.694008 -60.205930 -27.407887 0.103727 -0.266462 0.958248 
-32.474922 -60.233023 -27.614692 0.103727 -0.266462 0.958248 
-32.265485 -60.261712 -27.819419 0.103982 -0.266451 0.958223 
-32.100953 -60.260211 -28.065036 0.108147 -0.266133 0.957850 
-33.541652 -60.277257 -27.120776 0.103727 -0.266463 0.958247 
-33.257700 -60.368245 -27.263310 0.103729 -0.266463 0.958247 
-33.011569 -60.437433 -27.429899 0.103728 -0.266463 0.958247 
-32.368938 -60.539644 -28.033324 0.103770 -0.266460 0.958244 
-32.113154 -60.607221 -28.201987 0.108187 -0.266157 0.957839 
-32.068053 -60.481002 -28.569187 0.110468 -0.265953 0.957635 
-33.581860 -60.582336 -27.297740 0.103728 -0.266463 0.958247 
-33.339750 -60.638462 -27.468124 0.103728 -0.266462 0.958247 
-32.668640 -60.759234 -28.054659 0.103727 -0.266463 0.958248 
-32.380179 -60.854256 -28.188982 0.103879 -0.266457 0.958233 
-36.320144 -59.806278 -26.666170 0.070402 -0.246731 0.966523 
-36.043263 -59.903229 -26.798003 0.091004 -0.261854 0.960807 
-32.805809 -61.035749 -28.188177 0.103729 -0.266464 0.958247 
-32.544220 -61.116722 -28.330559 0.103772 -0.266459 0.958244 
-36.530415 -60.065903 -26.688103 0.067541 -0.248934 0.966163 
-36.303114 -60.114920 -26.873656 0.086536 -0.260263 0.961652 
-36.013529 -60.223486 -27.003563 0.097684 -0.264572 0.959406 
-35.741316 -60.302691 -27.148226 0.103728 -0.266463 0.958247 
-34.830874 -60.631647 -27.505683 0.103728 -0.266463 0.958247 
-33.095109 -61.229037 -28.280510 0.103728 -0.266462 0.958248 
-32.933158 -61.223178 -28.534750 0.103730 -0.266464 0.958247 
-36.471364 -60.369476 -26.836015 0.079901 -0.257649 0.962929 
-36.212520 -60.450271 -27.000676 0.092652 -0.262884 0.960368 
-35.925990 -60.545618 -27.134585 0.102102 -0.265994 0.958552 
-35.701745 -60.581420 -27.324143 0.103728 -0.266462 0.958248 
-35.078794 -60.815197 -27.547485 0.103728 -0.266463 0.958247 
-34.802564 -60.907460 -27.688352 0.103728 -0.266463 0.958247 
-37.092379 -60.405367 -27.004695 0.061398 -0.246933 0.967086 
-36.353055 -60.750645 -27.110455 0.091595 -0.262572 0.960555 
-36.069799 -60.836059 -27.261560 0.100913 -0.265668 0.958768 
-35.795455 -60.929535 -27.402479 0.103728 -0.266463 0.958247 
-35.490095 -61.045045 -27.517423 0.103728 -0.266463 0.958247 
-35.230113 -61.121507 -27.668635 0.103728 -0.266463 0.958247 
-34.942618 -61.216683 -27.802749 0.103727 -0.266464 0.958247 
-36.125724 -61.099314 -27.435879 0.101293 -0.265826 0.958685 
-35.836134 -61.207882 -27.565789 0.103728 -0.266463 0.958247 
-35.561348 -61.291447 -27.701829 0.103728 -0.266462 0.958248 
-35.272891 -61.386469 -27.836154 0.103728 -0.266463 0.958247 
-35.003748 -61.470343 -27.993857 0.103728 -0.266462 0.958248 
-34.794311 -61.499040 -28.198584 0.103728 -0.266463 0.958247 
-35.965867 -61.466553 -27.646127 0.103727 -0.266465 0.958247 
-35.679988 -61.557224 -27.789076 0.103728 -0.266462 0.958248 
-35.390877 -61.656918 -27.914360 0.103728 -0.266464 0.958247 
-35.098222 -61.760818 -28.031231 0.103728 -0.266462 0.958248 
-34.825539 -61.848891 -28.180516 0.103728 -0.266464 0.958247 
-34.522757 -61.960043 -28.304085 0.103728 -0.266464 0.958247 
-36.307035 -61.639435 -27.631445 0.097058 -0.264806 0.959405 
-36.022125 -61.730252 -27.774181 0.103254 -0.266373 0.958324 
-35.746857 -61.822683 -27.914846 0.103728 -0.266463 0.958247 
-35.151420 -62.037735 -28.155284 0.103728 -0.266462 0.958247 
-34.878738 -62.125801 -28.304567 0.103728 -0.266464 0.958247 
-34.593820 -62.216632 -28.447310 0.103728 -0.266463 0.958247 
-34.349132 -62.277125 -28.609072 0.103599 -0.266748 0.958182 
-36.214904 -61.971975 -27.850284 0.098011 -0.267107 0.958670 
-35.943183 -62.060201 -27.999360 0.102887 -0.267591 0.958024 
-35.072482 -62.367677 -28.380458 0.102113 -0.269532 0.957562 
-34.797696 -62.451249 -28.516502 0.101371 -0.271072 0.957206 
-34.515360 -62.537722 -28.667867 0.100341 -0.273590 0.956598 
-34.270191 -62.607059 -28.834245 0.099450 -0.276492 0.955857 
-34.978732 -62.704736 -28.590467 0.099168 -0.277418 0.955618 
-34.717792 -62.781037 -28.741888 0.098262 -0.280751 0.954737 
-34.431259 -62.876373 -28.875795 0.096481 -0.288008 0.952755 
-34.152988 -57.766139 -26.283307 0.062678 -0.203164 0.977137 
-33.927874 -57.863393 -26.376614 0.083781 -0.226606 0.970376 
-33.705361 -57.941931 -26.506073 0.096731 -0.241548 0.965556 
-34.318072 -58.004523 -26.319620 0.074567 -0.215252 0.973707 
-34.090377 -58.106138 -26.404307 0.092620 -0.235062 0.967557 
-33.862708 -58.193393 -26.516520 0.099612 -0.243347 0.964811 
-33.642753 -58.281934 -26.627072 0.100059 -0.244431 0.964490 
-33.188624 -58.504515 -26.759458 0.101336 -0.247863 0.963481 
-34.670997 -58.183503 -26.316103 0.071243 -0.213550 0.974331 
-34.435564 -58.298193 -26.374919 0.090721 -0.234423 0.967892 
-34.222696 -58.378334 -26.502302 0.100088 -0.243651 0.964685 
-33.769428 -58.571698 -26.712443 0.101600 -0.248106 0.963390 
-33.314639 -58.813320 -26.808261 0.102956 -0.252779 0.962031 
-33.107971 -58.827473 -27.062799 0.103409 -0.255000 0.961396 
-34.663051 -58.424083 -26.416885 0.090017 -0.234703 0.967890 
-34.433744 -58.530214 -26.492739 0.100426 -0.244197 0.964512 
-34.212177 -58.623274 -26.594461 0.101365 -0.246499 0.963827 
-33.257957 -59.170265 -26.680910 0.103794 -0.256705 0.960900 
-33.039934 -59.259126 -26.791049 0.104038 -0.259215 0.960200 
-32.870899 -59.146131 -27.271590 0.104014 -0.261371 0.959618 
-35.231799 -58.498198 -26.376979 0.064746 -0.212089 0.975103 
-35.002789 -58.623529 -26.416060 0.086463 -0.232497 0.968746 
-34.777675 -58.720783 -26.509366 0.100802 -0.245500 0.964141 
-34.544839 -58.816754 -26.604334 0.102131 -0.249344 0.963014 
-33.592058 -59.387284 -26.667459 0.103868 -0.262993 0.959190 
-32.922856 -59.656130 -26.991946 0.103752 -0.266253 0.958303 
-32.715155 -59.727558 -27.136575 0.103728 -0.266463 0.958247 
-32.543584 -59.618038 -27.608032 0.103727 -0.266463 0.958248 
-35.221944 -58.724100 -26.505706 0.084317 -0.232051 0.969042 
-34.980225 -58.861042 -26.542861 0.098368 -0.245546 0.964381 
-34.757024 -58.972974 -26.608222 0.102387 -0.251946 0.962310 
-34.542293 -59.037553 -26.763087 0.103382 -0.257469 0.960740 
-33.804740 -59.520287 -26.694255 0.103768 -0.265980 0.958377 
-33.139066 -59.799297 -26.999629 0.103728 -0.266463 0.958247 
-32.912570 -59.890004 -27.124833 0.103727 -0.266462 0.958248 
-32.698228 -59.947495 -27.275999 0.103727 -0.266462 0.958248 
-32.523365 -59.862260 -27.702733 0.103728 -0.266463 0.958247 
-34.755802 -59.306009 -26.811710 0.103742 -0.264937 0.958669 
-34.514797 -59.468535 -26.780402 0.103728 -0.266463 0.958247 
-34.269827 -59.628869 -26.772364 0.103728 -0.266462 0.958247 
-34.028864 -59.790511 -26.740594 0.103728 -0.266463 0.958247 
-33.806331 -59.883406 -26.842523 0.103728 -0.266463 0.958248 
-33.581236 -59.966302 -26.963359 0.103728 -0.266463 0.958247 
-33.359666 -60.059358 -27.065081 0.103727 -0.266462 0.958248 
-33.139707 -60.147894 -27.175633 0.103727 -0.266463 0.958247 
-32.919775 -60.222074 -27.313714 0.103728 -0.266463 0.958247 
-32.085089 -60.373738 -28.127163 0.108032 -0.266145 0.957860 
-34.398604 -59.721756 -27.105515 0.103728 -0.266462 0.958247 
-33.894894 -60.107796 -26.941044 0.103727 -0.266463 0.958247 
-33.666251 -60.194893 -27.053468 0.103728 -0.266462 0.958248 
-33.444684 -60.287953 -27.155190 0.103729 -0.266463 0.958247 
-33.225692 -60.376650 -27.265535 0.103728 -0.266463 0.958247 
-33.006410 -60.446150 -27.412654 0.103727 -0.266463 0.958247 
-32.165892 -60.625557 -28.172286 0.107218 -0.266231 0.957928 
-31.969839 -60.641474 -28.424537 0.112731 -0.265730 0.957434 
-34.005605 -60.197999 -27.429006 0.103728 -0.266463 0.958247 
-33.503233 -60.545962 -27.337669 0.103728 -0.266463 0.958247 
-32.662237 -60.734236 -28.101924 0.103727 -0.266464 0.958247 
-32.435507 -60.836008 -28.186400 0.103770 -0.266461 0.958243 
-34.078868 -60.352509 -27.508379 0.103728 -0.266463 0.958247 
-33.580040 -60.696273 -27.425459 0.103727 -0.266463 0.958248 
-32.736275 -60.899087 -28.139906 0.103728 -0.266463 0.958247 
-32.513739 -60.991981 -28.241835 0.103728 -0.266463 0.958247 
-36.276395 -59.776353 -26.675727 0.073580 -0.248591 0.965810 
-36.057403 -59.865050 -26.786072 0.090127 -0.261562 0.960970 
-33.593772 -60.879500 -27.919868 0.103728 -0.266464 0.958247 
-33.358158 -61.022248 -27.946532 0.103728 -0.266463 0.958247 
-33.145044 -61.082304 -28.110226 0.103727 -0.266462 0.958248 
-32.919601 -61.146887 -28.268297 0.103729 -0.266461 0.958248 
-32.689625 -61.272058 -28.307584 0.103727 -0.266463 0.958247 
-36.406705 -59.937473 -26.683390 0.069950 -0.249052 0.965961 
-36.194487 -60.012934 -26.819810 0.087681 -0.260675 0.961437 
-35.968727 -60.114875 -26.904082 0.096817 -0.264214 0.959592 
-35.754600 -60.175658 -27.068447 0.103624 -0.266436 0.958266 
-33.290022 -61.175587 -28.229977 0.103728 -0.266462 0.958248 
-33.072645 -61.259772 -28.349156 0.103727 -0.266462 0.958248 
-36.408679 -60.280230 -26.914032 0.084941 -0.259704 0.961945 
-36.185492 -60.377804 -27.006924 0.093230 -0.263081 0.960259 
-35.962013 -60.456182 -27.136590 0.101279 -0.265713 0.958717 
-35.736945 -60.552551 -27.229435 0.103728 -0.266462 0.958248 
-35.076404 -60.809367 -27.580044 0.103728 -0.266463 0.958247 
-34.850346 -60.892107 -27.701088 0.103728 -0.266463 0.958247 
-34.628776 -60.985169 -27.802814 0.103728 -0.266462 0.958248 
-36.441250 -60.559777 -26.987598 0.086802 -0.260683 0.961514 
-36.216854 -60.637110 -27.117010 0.095207 -0.263904 0.959839 
-35.996868 -60.712177 -27.255554 0.102219 -0.266032 0.958529 
-35.776914 -60.800714 -27.366106 0.103728 -0.266462 0.958248 
-35.340570 -60.959228 -27.623154 0.103728 -0.266462 0.958248 
-35.113841 -61.061008 -27.707634 0.103728 -0.266462 0.958248 
-34.885202 -61.148105 -27.820055 0.103728 -0.266462 0.958248 
-34.658179 -61.230677 -27.941305 0.103728 -0.266462 0.958248 
-37.321761 -60.409986 -27.019588 0.053692 -0.236260 0.970205 
-37.093419 -60.516278 -27.095234 0.063919 -0.249389 0.966292 
-36.162143 -60.990486 -27.323589 0.099489 -0.265277 0.959026 
-35.949925 -61.065954 -27.460011 0.103623 -0.266437 0.958266 
-35.724830 -61.148847 -27.580846 0.103728 -0.266463 0.958247 
-35.500682 -61.246261 -27.673945 0.103728 -0.266463 0.958247 
-35.281689 -61.334958 -27.784289 0.103727 -0.266464 0.958247 
-35.055632 -61.417697 -27.905333 0.103728 -0.266463 0.958247 
-34.825406 -61.522776 -27.980933 0.103728 -0.266462 0.958248 
-36.209994 -61.186090 -27.408140 0.098985 -0.265194 0.959101 
-36.001992 -61.238320 -27.589543 0.103624 -0.266436 0.958266 
-35.767526 -61.353167 -27.648153 0.103728 -0.266463 0.958247 
-35.553696 -61.433148 -27.775742 0.103728 -0.266462 0.958248 
-35.329548 -61.530562 -27.868841 0.103728 -0.266462 0.958247 
-35.095750 -61.626377 -27.964017 0.103729 -0.266461 0.958248 
-34.875792 -61.714913 -28.074570 0.103728 -0.266462 0.958248 
-34.648119 -61.802164 -28.186782 0.103728 -0.266462 0.958248 
-36.218661 -61.505068 -27.555178 0.099208 -0.265346 0.959036 
-35.998725 -61.579244 -27.693256 0.103624 -0.266436 0.958266 
-35.782364 -61.662699 -27.811763 0.103727 -0.266465 0.958247 
-35.552710 -61.750519 -27.924855 0.103728 -0.266463 0.958247 
-35.334687 -61.839377 -28.034991 0.103727 -0.266464 0.958247 
-35.105082 -61.926314 -28.147621 0.103728 -0.266463 0.958247 
-34.884477 -62.019530 -28.249135 0.103728 -0.266464 0.958247 
-34.658417 -62.102269 -28.370181 0.103728 -0.266464 0.958247 
-34.435880 -62.195164 -28.472111 0.103728 -0.266463 0.958247 
-36.365124 -61.688972 -27.650705 0.095738 -0.264419 0.959644 
-36.136485 -61.776070 -27.763127 0.101957 -0.266098 0.958539 
-35.919586 -61.851395 -27.877685 0.103727 -0.266465 0.958247 
-35.251354 -62.120406 -28.201965 0.103728 -0.266463 0.958247 
-35.022765 -62.206613 -28.313923 0.103716 -0.266490 0.958241 
-34.806304 -62.291835 -28.433352 0.103549 -0.266833 0.958164 
-34.577665 -62.378933 -28.545774 0.102486 -0.268867 0.957709 
-34.355802 -62.452795 -28.684271 0.101360 -0.271208 0.957169 
-36.069775 -62.103259 -27.994852 0.100645 -0.269636 0.957688 
-34.947786 -62.556621 -28.524863 0.100381 -0.273585 0.956595 
-34.728797 -62.645318 -28.635207 0.099697 -0.275743 0.956047 
-34.510473 -62.714982 -28.782120 0.098914 -0.278742 0.955258 
-34.280200 -62.820952 -28.858181 0.097197 -0.285028 0.953578 
-34.713011 -62.937574 -28.787647 0.096395 -0.288680 0.952561 
-37.159723 -60.543887 -27.135744 0.063661 -0.248945 0.966423 
-36.537093 -60.159245 -26.791269 0.072044 -0.253813 0.964567 
-36.343118 -59.983135 -26.760285 0.079090 -0.256527 0.963296 
-36.153717 -59.791063 -26.743058 0.084325 -0.257312 0.962642 
-35.195193 -58.820180 -26.643454 0.092807 -0.241517 0.965949 
-34.982431 -58.726733 -26.497509 0.092180 -0.238829 0.966677 
-34.791442 -58.552653 -26.443461 0.091250 -0.236339 0.967377 
-34.592735 -58.377294 -26.391077 0.089881 -0.234218 0.968020 
-34.395347 -58.178212 -26.384293 0.087449 -0.230297 0.969183 
-34.212114 -57.976700 -26.383643 0.082390 -0.224052 0.971088 
-34.023907 -57.755851 -26.397903 0.072159 -0.213657 0.974240 
-36.390052 -60.376063 -26.944849 0.086764 -0.260464 0.961577 
-36.195538 -60.191827 -26.909917 0.090382 -0.261836 0.960871 
-35.997004 -60.020638 -26.871187 0.094516 -0.263319 0.960068 
-34.823140 -58.960670 -26.617016 0.102334 -0.251781 0.962359 
-34.621851 -58.789662 -26.556006 0.101661 -0.247515 0.963536 
-34.436987 -58.607030 -26.518997 0.100984 -0.245336 0.964164 
-34.241508 -58.422626 -26.484270 0.100162 -0.243748 0.964652 
-34.046048 -58.223869 -26.477074 0.099721 -0.242951 0.964899 
-33.860934 -58.021151 -26.476378 0.097186 -0.240596 0.965748 
-36.409221 -60.717528 -27.158096 0.090477 -0.262154 0.960775 
-36.221779 -60.539254 -27.112466 0.094433 -0.263591 0.960001 
-36.025654 -60.359531 -27.068699 0.098895 -0.264978 0.959170 
-35.830659 -60.184150 -27.038389 0.101944 -0.265943 0.958583 
-34.874047 -59.227947 -26.910838 0.103718 -0.264382 0.958825 
-34.658707 -59.138857 -26.756271 0.103589 -0.260368 0.959936 
-34.080327 -58.577418 -26.668716 0.101425 -0.247095 0.963668 
-33.879688 -58.401739 -26.616746 0.100536 -0.245003 0.964296 
-33.686809 -58.198619 -26.618171 0.099775 -0.243912 0.964651 
-36.197122 -60.790139 -27.235053 0.097316 -0.264604 0.959434 
-36.002130 -60.614755 -27.204740 0.101520 -0.265819 0.958663 
-35.801496 -60.439076 -27.152769 0.103728 -0.266463 0.958247 
-34.630503 -59.393943 -26.870445 0.103729 -0.266416 0.958260 
-33.477938 -58.262195 -26.712790 0.100126 -0.244931 0.964357 
-36.165656 -61.285947 -27.471877 0.100257 -0.265554 0.958869 
-35.978884 -61.088633 -27.462811 0.103624 -0.266437 0.958266 
-35.783405 -60.904233 -27.428086 0.103728 -0.266463 0.958247 
-34.177820 -59.723361 -26.754871 0.103728 -0.266463 0.958247 
-33.980056 -59.562513 -26.674748 0.103732 -0.266366 0.958274 
-33.781518 -59.391327 -26.636020 0.103821 -0.263643 0.959017 
-33.266303 -58.543274 -26.952965 0.102060 -0.250016 0.962848 
-36.376399 -61.703940 -27.666493 0.095460 -0.264358 0.959689 
-36.180739 -61.547585 -27.599610 0.100426 -0.265654 0.958823 
-35.992531 -61.326737 -27.613870 0.103624 -0.266437 0.958266 
-35.802508 -61.152820 -27.559617 0.103728 -0.266463 0.958247 
-35.607995 -60.968581 -27.524684 0.103728 -0.266463 0.958247 
-33.982907 -59.826910 -26.795936 0.103727 -0.266463 0.958247 
-33.798043 -59.644274 -26.758926 0.103728 -0.266462 0.958248 
-33.610301 -59.446802 -26.750070 0.103816 -0.264972 0.958651 
-33.416754 -59.262719 -26.714928 0.103874 -0.260621 0.959837 
-36.270424 -61.943538 -27.888887 0.096845 -0.267283 0.958739 
-36.069604 -61.795908 -27.804760 0.102949 -0.266325 0.958370 
-35.873643 -61.620368 -27.774656 0.103728 -0.266462 0.958247 
-35.680096 -61.436288 -27.739516 0.103728 -0.266463 0.958247 
-35.495236 -61.253649 -27.702503 0.103728 -0.266462 0.958248 
-35.295560 -61.078126 -27.650327 0.103728 -0.266463 0.958247 
-35.101515 -60.917268 -27.592277 0.103728 -0.266463 0.958247 
-33.873669 -60.122140 -26.954645 0.103728 -0.266463 0.958247 
-33.109481 -59.363551 -26.857817 0.103927 -0.262423 0.959340 
-35.982840 -61.960208 -27.913760 0.103402 -0.266446 0.958287 
-35.787361 -61.775800 -27.879031 0.103728 -0.266464 0.958247 
-35.591236 -61.596080 -27.835269 0.103727 -0.266462 0.958248 
-35.395753 -61.411679 -27.800543 0.103728 -0.266463 0.958247 
-35.201728 -61.236453 -27.770021 0.103728 -0.266462 0.958248 
-35.007214 -61.052214 -27.735088 0.103728 -0.266462 0.958248 
-34.822350 -60.869581 -27.698079 0.103728 -0.266463 0.958247 
-34.030723 -60.205682 -27.460168 0.103728 -0.266462 0.958247 
-33.783862 -60.267421 -27.078136 0.103728 -0.266463 0.958248 
-33.591258 -60.097853 -27.015256 0.103728 -0.266463 0.958247 
-33.390141 -59.931029 -26.967906 0.103727 -0.266463 0.958247 
-33.196594 -59.746950 -26.932765 0.103728 -0.266463 0.958247 
-33.007240 -59.553994 -26.915079 0.103817 -0.265267 0.958569 
-32.873961 -59.082815 -27.285061 0.104099 -0.260261 0.959910 
-35.359050 -61.687376 -27.939274 0.103728 -0.266462 0.958248 
-35.176299 -61.477004 -27.934003 0.103728 -0.266462 0.958248 
-34.980342 -61.301463 -27.903900 0.103728 -0.266463 0.958247 
-34.781635 -61.126101 -27.851513 0.103728 -0.266462 0.958248 
-33.993547 -60.458003 -27.622018 0.103728 -0.266463 0.958247 
-33.756517 -60.493282 -27.270063 0.103728 -0.266463 0.958247 
-33.549095 -60.363071 -27.173520 0.103728 -0.266463 0.958247 
-33.361185 -60.161416 -27.151005 0.103728 -0.266463 0.958247 
-33.170687 -59.996353 -27.101367 0.103728 -0.266463 0.958247 
-32.970718 -59.801633 -27.085964 0.103729 -0.266463 0.958247 
-32.843857 -59.341095 -27.436211 0.103809 -0.265613 0.958475 
-35.285367 -61.970004 -28.104172 0.103728 -0.266461 0.958248 
-35.091342 -61.794784 -28.073653 0.103728 -0.266464 0.958247 
-34.898440 -61.606019 -28.047547 0.103728 -0.266461 0.958248 
-33.486881 -60.600373 -27.404856 0.103728 -0.266463 0.958247 
-33.287027 -60.452901 -27.320519 0.103728 -0.266463 0.958247 
-33.087351 -60.277378 -27.268342 0.103728 -0.266463 0.958247 
-32.901522 -60.094584 -27.231543 0.103728 -0.266463 0.958247 
-32.711224 -59.887104 -27.241586 0.103728 -0.266462 0.958248 
-35.129238 -62.254879 -28.364453 0.103305 -0.267288 0.958063 
-34.930513 -62.093878 -28.284540 0.103729 -0.266463 0.958247 
-34.734384 -61.914157 -28.240777 0.103728 -0.266461 0.958248 
-34.542740 -61.776987 -28.159193 0.103728 -0.266462 0.958248 
-33.571785 -60.851278 -27.993360 0.103728 -0.266463 0.958247 
-33.344604 -60.845752 -27.699014 0.103727 -0.266463 0.958247 
-32.936844 -60.559048 -27.513724 0.103727 -0.266462 0.958248 
-32.752946 -60.376570 -27.476504 0.103727 -0.266463 0.958248 
-32.558433 -60.192330 -27.441572 0.103728 -0.266463 0.958247 
-32.402708 -59.820824 -27.683090 0.103727 -0.266463 0.958247 
-35.022313 -62.377216 -28.400288 0.102119 -0.269521 0.957565 
-34.831343 -62.188778 -28.373770 0.103728 -0.266462 0.958248 
-34.643420 -62.019349 -28.332755 0.103728 -0.266463 0.958247 
-33.463731 -60.987139 -28.024771 0.103728 -0.266463 0.958247 
-34.945399 -62.550799 -28.557423 0.100341 -0.273718 0.956561 
-34.750932 -62.365676 -28.522030 0.102331 -0.269148 0.957647 
-34.551678 -62.214410 -28.447198 0.103728 -0.266462 0.958248 
-33.385179 -61.179601 -28.145552 0.103727 -0.266464 0.958247 
-33.191613 -61.009876 -28.082881 0.103727 -0.266463 0.958247 
-34.873150 -62.806863 -28.708465 0.097796 -0.281956 0.954430 
-34.680068 -62.646151 -28.650205 0.099618 -0.275900 0.956010 
-34.489751 -62.453041 -28.632726 0.101354 -0.271133 0.957191 
-33.117455 -61.251258 -28.261864 0.103727 -0.266462 0.958248 
-32.919217 -61.099271 -28.186358 0.103728 -0.266462 0.958247 
-32.732737 -60.921157 -28.140521 0.103727 -0.266462 0.958248 
-32.538224 -60.736917 -28.105587 0.103729 -0.266463 0.958247 
-32.345327 -60.548159 -28.079486 0.103795 -0.266460 0.958241 
-32.156934 -60.355363 -28.061589 0.106980 -0.266245 0.957950 
-34.683297 -62.940299 -28.844302 0.096534 -0.288981 0.952455 
-34.488784 -62.756052 -28.809367 0.098250 -0.280845 0.954711 
-34.292158 -62.599552 -28.742695 0.099853 -0.275233 0.956178 
-33.173816 -61.327645 -28.770697 0.103727 -0.266464 0.958247 
-32.921296 -61.421303 -28.348508 0.103728 -0.266463 0.958247 
-32.725217 -61.240699 -28.304283 0.103727 -0.266463 0.958248 
-32.535148 -61.067667 -28.250489 0.103728 -0.266462 0.958247 
-32.348371 -60.870352 -28.241426 0.104117 -0.266443 0.958211 
-32.155008 -60.658220 -28.238440 0.107943 -0.266185 0.957859 
-34.265782 -62.825581 -28.934415 0.097009 -0.286735 0.953086 
-31.998186 -60.397010 -28.222910 0.111054 -0.265820 0.957605 
-32.203085 -60.308783 -28.047435 0.105821 -0.266331 0.958055 
-32.202399 -60.595250 -28.169238 0.106373 -0.266304 0.958002 
-32.185279 -60.875473 -28.258012 0.107741 -0.266209 0.957875 
-32.544134 -60.937990 -28.240245 0.103727 -0.266462 0.958248 
-32.524486 -61.221696 -28.319935 0.103769 -0.266458 0.958244 
-32.557781 -59.893835 -27.256100 0.103728 -0.266462 0.958247 
-32.569038 -60.176225 -27.430259 0.103729 -0.266463 0.958247 
-32.651236 -60.988030 -28.198705 0.103729 -0.266462 0.958247 
-32.650549 -61.274497 -28.320510 0.103727 -0.266463 0.958248 
-33.063738 -58.738421 -27.077410 0.103138 -0.254066 0.961672 
-32.965213 -59.330633 -26.884336 0.103977 -0.261141 0.959684 
-32.962427 -59.612606 -26.992902 0.103767 -0.266042 0.958360 
-32.952137 -59.896582 -27.116319 0.103728 -0.266463 0.958247 
-32.967538 -60.170978 -27.308392 0.103728 -0.266462 0.958248 
-33.066169 -60.989024 -28.109867 0.103729 -0.266463 0.958247 
-33.066636 -61.265470 -28.272652 0.103728 -0.266462 0.958248 
-33.262293 -58.557290 -26.752498 0.101588 -0.248272 0.963349 
-33.193661 -59.135640 -26.740631 0.103768 -0.256538 0.960948 
-33.178928 -59.421689 -26.796843 0.103923 -0.263057 0.959167 
-33.166293 -59.997539 -27.033697 0.103728 -0.266463 0.958247 
-33.177063 -60.270909 -27.203443 0.103727 -0.266463 0.958248 
-33.194441 -60.544743 -27.394638 0.103729 -0.266463 0.958247 
-33.615174 -57.738968 -26.604425 0.091866 -0.237962 0.966920 
-33.576751 -58.022993 -26.597118 0.098890 -0.243898 0.964746 
-33.476570 -59.186817 -26.693461 0.103786 -0.258818 0.960334 
-33.461836 -59.472862 -26.749672 0.103819 -0.264850 0.958685 
-33.475463 -60.028501 -27.049636 0.103728 -0.266463 0.958247 
-33.482230 -60.300568 -27.243114 0.103728 -0.266463 0.958247 
-33.802442 -57.710099 -26.441033 0.079610 -0.223620 0.971420 
-33.779488 -58.000207 -26.466964 0.097097 -0.240536 0.965771 
-33.772987 -58.282198 -26.553454 0.099974 -0.243718 0.964680 
-33.689897 -59.433224 -26.719396 0.103816 -0.264711 0.958723 
-33.672784 -59.713447 -26.808169 0.103728 -0.266463 0.958247 
-33.669513 -60.004276 -26.921353 0.103728 -0.266463 0.958247 
-34.201140 -57.812759 -26.350452 0.067740 -0.208074 0.975765 
-34.169498 -58.101421 -26.378252 0.090035 -0.232450 0.968432 
-34.168812 -58.387883 -26.500056 0.100082 -0.243633 0.964690 
-34.087617 -59.821018 -26.796424 0.103728 -0.266462 0.958247 
-34.234261 -62.589925 -28.755151 0.099852 -0.275191 0.956190 
-34.351508 -57.901576 -26.303974 0.065237 -0.204614 0.976666 
-34.324547 -58.190377 -26.353637 0.089255 -0.231839 0.968651 
-34.327889 -58.463795 -26.479237 0.100261 -0.244029 0.964571 
-34.391453 -62.401596 -28.612937 0.102240 -0.269365 0.957596 
-34.393535 -62.673523 -28.784552 0.099281 -0.277376 0.955618 
-34.660869 -58.190756 -26.322797 0.072062 -0.214329 0.974100 
