# .PCD v0.7 - Point Cloud Data file format
VERSION 0.7
FIELDS x y z
SIZE 4 4 4
TYPE F F F
COUNT 1 1 1
WIDTH 1522
HEIGHT 1
VIEWPOINT 0 0 0 1 0 0 0
POINTS 1522
DATA ascii
-16.952877 -9.3256626 2.2912867
0.98898649 -9.338254 1.4455837
0.53756905 -16.363136 1.9919894
-17.076952 -9.3268833 2.29972
0.96735811 -9.309515 1.4434676
0.49535513 -16.36915 1.9926696
-17.141582 -9.3030815 2.3033135
0.94522715 -9.3151112 1.4405234
0.45541525 -16.386431 1.9879894
-17.378162 -9.3640919 2.3213537
0.92485619 -9.3078194 1.4400722
0.42127657 -16.343033 1.9848311
-17.442963 -9.3348827 2.3248005
0.90011978 -9.3245649 1.4415009
0.37991571 -16.337088 1.9846056
-17.572834 -9.340847 2.3338206
0.87695551 -9.3423481 1.4430051
0.34024286 -16.349722 1.9858086
-17.639469 -9.3185253 2.3376341
0.85962772 -9.2960768 1.4395458
0.30127811 -16.372082 1.9877639
-17.805656 -9.3359566 2.3495142
0.82853794 -9.3893089 1.4469155
0.25883436 -16.378447 1.9885159
-17.922665 -9.3340816 2.3574343
0.8114295 -9.3312273 1.4425538
0.22098494 -16.366522 1.9878392
-17.954708 -9.2945023 2.3625057
0.7878437 -9.3614674 1.4450355
0.18414068 -16.361433 1.9876888
-17.993965 -9.251379 2.3638291
0.76364803 -9.3671684 1.445637
0.14208603 -16.362638 1.9880648
-18.207575 -9.2902594 2.3797097
0.73878288 -9.3893681 1.4475172
0.098190308 -16.400721 1.9912984
-18.289471 -9.2726593 2.3847826
0.71864223 -9.3787041 1.4468403
0.062191486 -16.385654 1.990396
-18.416594 -9.2705708 2.3934581
0.019530296 -16.408012 1.9924264
-18.518955 -9.2567329 2.400075
0.67281199 -9.3791866 1.4472163
-0.018563747 -16.382778 1.990772
-18.656998 -9.2629757 2.4097798
-0.058743954 -16.410076 1.9931784
-18.92507 -9.3192101 2.4299982
0.63033104 -9.3553839 1.4448375
-0.099602699 -16.397207 1.990948
-19.05101 -9.3160801 2.4386001
0.61402512 -9.3017864 1.4408567
-0.13524961 -16.365078 1.98877
-19.147636 -9.3018923 2.4448493
0.58665752 -9.3605433 1.4455886
-0.17876244 -16.421124 1.9934266
-19.30674 -9.3073359 2.4560244
0.56132746 -9.3744164 1.4468653
-0.22054052 -16.41654 1.9934266
-19.417786 -9.2959681 2.4633765
0.52833557 -9.4706516 1.4545264
-0.25998211 -16.418972 1.9939523
-19.567402 -9.3030319 2.4739635
0.51626205 -9.389884 1.4484427
-0.29655218 -16.409882 1.9935768
-19.711704 -9.2999096 2.4838889
0.48650074 -9.4393358 1.4524984
-0.33704042 -16.394356 1.9927506
-19.848118 -9.2975464 2.4932997
0.46887112 -9.4009447 1.4497194
-0.3778801 -16.408102 1.9941778
-20.022377 -9.3128672 2.5058718
0.44574451 -9.4157772 1.4510715
-0.41677046 -16.41807 1.9953043
-20.210209 -9.3256855 2.519326
0.42501497 -9.3896503 1.4492688
-0.45647335 -16.396448 1.9940276
-20.328144 -9.3134604 2.5271928
0.40169716 -9.3984661 1.4501702
-0.50066996 -16.435001 1.9974074
-20.443478 -9.302083 2.5349126
0.38538361 -9.3600292 1.4473912
-0.53581953 -16.414743 1.9962056
-20.615551 -9.3059788 2.5470436
0.37165308 -9.2835789 1.4416829
-0.56639385 -16.325268 1.9896712
-20.804071 -9.3181438 2.5605714
0.34738874 -9.2940006 1.4436066
-20.954918 -9.3191738 2.5711584
0.32918119 -9.2728357 1.4421778
-20.992813 -9.2692585 2.5724082
0.30229282 -9.3015299 1.4446595
-21.100281 -9.2469025 2.5793192
-109.42363 -44.348961 9.755043
0.28105021 -9.2896643 1.4439826
-21.375431 -9.2952881 2.5999787
-110.13527 -44.334545 9.8045959
0.25289011 -9.337738 1.4479682
-21.534763 -9.289257 2.6110067
-110.90455 -44.302177 9.8577518
0.21803045 -9.4113474 1.4539845
-0.81620407 -16.391273 1.9989688
-21.681593 -9.2826748 2.6211526
-111.77757 -44.331234 9.9199505
0.19933796 -9.3868961 1.45233
-0.85930967 -16.415352 2.0013001
-21.780928 -9.2596264 2.6202886
-112.56152 -44.334232 9.9398394
0.17455816 -9.40874 1.4542851
-0.89510632 -16.401056 2.0006235
-21.845989 -9.2152987 2.6236577
-113.34992 -44.297424 9.9941845
0.15078163 -9.4060574 1.4543605
-0.93907499 -16.409048 2.0017514
-22.033949 -9.2226496 2.6370609
-114.13411 -44.280396 10.048822
0.1339283 -9.3708897 1.4518788
-0.98031139 -16.419334 2.0030298
-22.359676 -9.2837648 2.6615965
-115.02121 -44.311306 10.112029
0.10792446 -9.3992825 1.4543605
-1.0177498 -16.415344 2.0031803
-22.557119 -9.28722 2.6755855
-115.97462 -44.324413 10.179484
0.084792614 -9.3925819 1.4541348
-1.0632706 -16.431652 2.0049851
-22.760311 -9.2970867 2.6901605
-116.69228 -44.270668 10.228628
0.06088686 -9.4014816 1.4551125
-1.1011825 -16.42049 2.0046091
-22.930849 -9.2965574 2.702172
-117.56596 -44.284218 10.29059
0.038934231 -9.4037447 1.4555637
-1.1392817 -16.420059 2.0050602
-23.141596 -9.3019581 2.7171865
-118.49596 -44.275234 10.355994
0.014667034 -9.4035864 1.4558644
-1.1826901 -16.422586 2.0058122
-23.311405 -9.2940598 2.7289782
-119.39598 -44.26366 10.419274
-0.0072417259 -9.3948822 1.4554884
-1.2240849 -16.422388 2.0063386
-23.530878 -9.3086967 2.7448714
-120.1545 -44.222916 10.471862
-0.02484417 -9.3720455 1.4539845
-1.260716 -16.413036 2.0061131
-23.743122 -9.3142376 2.7600324
-0.050917625 -9.3872099 1.4554884
-1.3004107 -16.403051 2.0058875
-23.949129 -9.3164921 2.7746804
-0.073095322 -9.3802643 1.4552629
-1.3463039 -16.427462 2.0083692
-24.025005 -9.2773037 2.7790749
-0.095959663 -9.3869925 1.45609
-1.3829265 -16.417833 2.0081434
-24.205439 -9.2661705 2.791599
-129.51711 -46.148151 11.183837
-0.11952925 -9.3826466 1.45609
-1.4270029 -16.422579 2.0091212
-24.548347 -9.3161573 2.8251734
-0.14422417 -9.3938789 1.4572933
-1.4669471 -16.422045 2.0096476
-24.734829 -9.3132944 2.8384073
-0.16591978 -9.393734 1.4575942
-1.506269 -16.426489 2.01055
-24.940626 -9.3076849 2.8529644
-0.18063784 -9.3433199 1.4539845
-1.5443602 -16.399349 2.0090458
-25.103336 -9.2921057 2.864213
-0.21339226 -9.3954706 1.4584212
-1.5914049 -16.434834 2.01243
-25.28833 -9.2861328 2.8772998
-0.22868538 -9.3626881 1.4561653
-1.6240273 -16.404591 2.0106251
-25.416914 -9.2518539 2.8856812
-0.25104141 -9.352272 1.455714
-1.6678667 -16.406767 2.0114524
-25.647314 -9.2564516 2.902297
-27.108772 -9.7406006 3.0185337
-0.27763176 -9.3717308 1.4575942
-1.7101974 -16.417088 2.0128813
-25.939934 -9.2833061 2.923912
-0.29954147 -9.3722897 1.4570801
-1.7491102 -16.418198 2.0119784
-26.226162 -9.2978621 2.944792
-0.32068872 -9.355978 1.4561788
-1.7892861 -16.401922 2.0113776
-26.487745 -9.3088827 2.963834
-0.34484911 -9.3628502 1.4570801
-1.8331432 -16.418592 2.0133302
-26.718014 -9.3085947 2.9803762
-0.37291479 -9.3877506 1.4594085
-1.8766942 -16.433239 2.0151329
-26.984573 -9.315732 2.9997122
-0.3966403 -9.3876352 1.459784
-1.9181824 -16.430305 2.0155835
-27.125027 -9.2817965 3.0090494
-0.42037773 -9.3874588 1.4601595
-1.9617581 -16.436777 2.0167851
-27.3344 -9.2748184 3.0239742
-0.44048834 -9.3790493 1.4598591
-2.0073328 -16.466633 2.0197895
-27.671885 -9.2973967 3.025233
-0.46190953 -9.3643093 1.459108
-2.0428433 -16.42881 2.0175364
-27.965309 -9.3108625 3.0464833
-0.48088384 -9.347065 1.4581316
-2.0770259 -16.40016 2.015959
-28.169594 -9.2988729 3.0608196
-0.5063014 -9.3622522 1.4597089
-2.1201882 -16.418301 2.0180621
-28.424124 -9.2917395 3.0788677
-148.62265 -45.560699 12.461123
-0.53902626 -9.3966856 1.4628634
-2.1691966 -16.439995 2.0205407
-28.723736 -9.3030939 3.1005542
-0.55199885 -9.3536787 1.4598591
-2.2041478 -16.414865 2.0192637
-28.950809 -9.2946663 3.1166375
-0.57847261 -9.3724585 1.4617368
-2.2430568 -16.413719 2.0198646
-29.112394 -9.2563725 3.127408
-0.60539985 -9.3810682 1.4628634
-2.2945457 -16.44451 2.0230944
-29.453655 -9.2760258 3.1522968
-0.63024616 -9.3883972 1.4602462
-2.333395 -16.435673 2.0167203
-29.874781 -9.3203335 3.183444
-0.6509676 -9.3823614 1.4601715
-2.3770237 -16.453133 2.0188129
-30.118183 -9.3019285 3.200546
-0.67195654 -9.3661814 1.4593494
-2.4191103 -16.443804 2.0188878
-30.348721 -9.2852526 3.2167745
-0.69231486 -9.3551102 1.4589009
-2.4653816 -16.464424 2.0212791
-30.698505 -9.3043041 3.2423182
-0.71438026 -9.3546 1.4592746
-2.5085559 -16.478699 2.0231476
-30.97234 -9.2905092 3.261749
-33.101238 -9.8824387 3.4268734
-0.74386978 -9.3722429 1.461143
-2.5514364 -16.471861 2.0234466
-31.275497 -9.2867718 3.2835083
-0.7670126 -9.36833 1.4612925
-2.5954247 -16.475679 2.0245674
-31.570974 -9.2862549 3.32464
-0.79061127 -9.3732929 1.4621146
-2.6287632 -16.45097 2.0233717
-31.900795 -9.286788 3.3486204
-0.80832934 -9.3485413 1.4606199
-2.6747437 -16.462111 2.0250907
-32.171558 -9.2698803 3.3679805
-0.8306787 -9.3416405 1.4605451
-2.7245483 -16.487244 2.0279305
-32.460484 -9.2634287 3.388881
-0.85781336 -9.3596058 1.4624135
-2.7645974 -16.487663 2.0287526
-32.870827 -9.276967 3.4190214
-0.88842273 -9.3796062 1.4645061
-2.806284 -16.475445 2.0286779
-33.008286 -9.2246037 3.4280415
-0.90074348 -9.3389292 1.461741
-2.848423 -16.477119 2.0296495
-33.297615 -9.2142725 3.4489417
-0.93011093 -9.3641968 1.4642072
-2.8934345 -16.495071 2.0318916
-33.951096 -9.2845545 3.4979289
-0.95119667 -9.3489819 1.4671445
-2.9279556 -16.456715 2.0362382
-34.223816 -9.2627859 3.5174358
-0.98450494 -9.3841581 1.4704493
-2.9893484 -16.526508 2.0426974
-34.462708 -9.2349653 3.5343761
-0.99244738 -9.3323488 1.466769
-3.0190248 -16.4888 2.0405195
-34.89048 -9.2416344 3.5657632
-3.0818501 -16.549885 2.0463779
-35.334778 -9.2576027 3.5985436
-1.040786 -9.3306818 1.4676703
-3.1119242 -16.507812 2.0438993
-35.716972 -9.2601919 3.6265574
-3.1617699 -16.539999 2.0473542
-36.158108 -9.2636757 3.6551828
-1.0905008 -9.3364868 1.4691725
-3.1978045 -16.507141 2.0457017
-1.1216507 -9.3587608 1.4715009
-3.2595582 -16.567081 2.0514851
-36.98597 -9.2666435 3.7158263
-1.1475563 -9.3693333 1.4728527
-3.3028822 -16.575514 2.0530624
-37.392559 -9.2595224 3.7454889
-3.359242 -16.615513 2.0572684
-37.774666 -9.2447805 3.7732472
-44.650379 -10.817648 4.3037314
-1.1990781 -9.3761568 1.4745052
-3.4056206 -16.621801 2.0587707
-38.178017 -9.2409573 3.8027632
-44.641323 -10.703846 4.301168
-1.2234313 -9.380929 1.4754064
-3.4472103 -16.623337 2.0598221
-38.700073 -9.2497177 3.8412147
-44.67107 -10.584938 4.3013873
-1.2478456 -9.3764544 1.4756317
-3.517745 -16.701437 2.0671828
-39.250187 -9.2701664 3.8819366
-44.581596 -10.44895 4.2925987
-1.2664881 -9.3595829 1.4729815
-3.574883 -16.746124 2.0684564
-39.391644 -9.2027359 3.8912382
-44.59922 -10.341581 4.2921591
-1.2856171 -9.3474579 1.472532
-3.6203647 -16.758387 2.0704043
-40.003876 -9.2240391 3.9365745
-1.3205843 -9.3762207 1.4754539
-3.686307 -16.818199 2.076323
-40.267155 -9.1761103 3.9551775
-1.3438647 -9.3739004 1.4758285
-3.7000761 -16.724884 2.0698049
-40.710625 -9.1692104 3.9876966
-1.3743615 -9.3968182 1.4782259
-3.7576575 -16.773861 2.0747497
-41.09869 -9.1359272 4.015748
-1.3916154 -9.3697224 1.4766526
-3.8193455 -16.818335 2.0794697
-41.79229 -9.172163 4.0673828
-1.4140022 -9.3644447 1.4768026
-4.0063853 -17.254005 2.1158066
-42.257381 -9.1629448 4.1015129
-1.4456103 -9.389904 1.4794247
-3.9615631 -16.987862 2.0952783
-42.584866 -9.1107216 4.124877
-1.469183 -9.3820648 1.4794247
-4.1118336 -17.293949 2.1212759
-43.057777 -9.0945587 4.1595197
-1.4909906 -9.3747511 1.4794247
-4.1485586 -17.268284 2.120302
-43.571117 -9.088541 4.1973124
-1.5206685 -9.3934994 1.4815226
-4.1938896 -17.273518 2.1218004
-44.152214 -9.0796528 4.2400846
-1.5420437 -9.3790169 1.480998
-4.2397518 -17.264067 2.1222498
-44.723156 -9.070425 4.282125
-1.5621767 -9.3638659 1.4803987
-4.2938175 -17.283587 2.1250219
-45.364414 -9.0808964 4.3296585
-1.5881839 -9.3713474 1.4815974
-4.3374019 -17.282923 2.126071
-1.612493 -9.3681726 1.4801257
-4.3763142 -17.258284 2.1217973
-1.6435668 -9.3840799 1.4820688
-4.4383936 -17.299412 2.1263561
-1.6687491 -9.3885851 1.4830403
-4.4798241 -17.291962 2.1268792
-47.18269 -8.9260178 4.4620781
-1.6992192 -9.399415 1.4846096
-4.5369873 -17.312901 2.1298685
-47.804714 -8.9148216 4.5080004
-1.7200756 -9.3888035 1.4843855
-4.5758104 -17.292719 2.1294203
-48.44149 -8.9081383 4.5550942
-1.7310376 -9.3537569 1.4821434
-4.6209345 -17.295 2.1307654
-48.687393 -8.816906 4.5721593
-1.7682641 -9.382658 1.4852076
-4.6703253 -17.293541 2.1319611
-49.379787 -8.8094578 4.6134567
-1.7823095 -9.3536215 1.4834887
-4.7124362 -17.282185 2.1322601
-49.852806 -8.767437 4.6479383
-1.8130291 -9.372345 1.485656
-4.7590141 -17.287758 2.1339042
-50.633003 -8.7580395 4.7055783
-1.853312 -9.408226 1.4893179
-4.8187513 -17.313251 2.137342
-51.386864 -8.750803 4.7613187
-1.8610711 -9.362648 1.4862539
-4.8506103 -17.274204 2.1353989
-51.463985 -8.638155 4.7657018
-1.8926959 -9.3829384 1.4885707
-4.9018164 -17.291235 2.1380146
-1.9148538 -9.3703041 1.4882717
-4.9541979 -17.296242 2.1398082
-5.0176487 -17.334421 2.1442924
-1.9841845 -9.4198008 1.492787
-5.061512 -17.331139 2.1435096
-54.536259 -8.5576134 4.9926081
-1.994524 -9.3791809 1.4901745
-5.1068363 -17.321802 2.1441069
-54.519196 -8.4123688 4.989759
-2.0279202 -9.3974352 1.4924138
-5.1589499 -17.329559 2.1461222
-5.2107477 -17.345697 2.1487346
-2.0840399 -9.4086542 1.4948024
-5.2610555 -17.343454 2.1500034
-75.085007 -10.836487 6.5428181
-5.3106737 -17.348703 2.1517949
-75.143898 -10.664894 6.5454483
-2.1356735 -9.4130363 1.4965937
-5.3601828 -17.358086 2.1538849
-57.50547 -8.1143131 5.2085562
-2.1581979 -9.4007063 1.4963698
-5.4025249 -17.335577 2.1535118
-57.580143 -7.9801216 5.2127934
-2.1793075 -9.3899403 1.4962206
-5.450428 -17.33592 2.1549299
-5.4956198 -17.334114 2.1561241
-2.228683 -9.3831758 1.4971908
-5.5442429 -17.326546 2.1570199
-5.5986609 -17.341759 2.1597068
-2.2930262 -9.4163418 1.5014454
-5.6507969 -17.355709 2.1622448
-2.3174276 -9.4081011 1.5015947
-5.7052789 -17.361143 2.1642599
-60.543999 -7.4492054 5.4285955
-2.3290486 -9.3748589 1.4957843
-5.7552404 -17.364738 2.1588478
-60.509109 -7.3005371 5.4247236
-2.3746583 -9.4230795 1.5005374
-5.803792 -17.369291 2.1606302
-2.4041352 -9.4262304 1.5016515
-5.8650837 -17.389439 2.163898
-2.4081855 -9.3734732 1.4980867
-5.9073195 -17.369957 2.1638238
-2.469125 -9.4551935 1.505662
-5.9623194 -17.388348 2.1667945
-2.4655442 -9.3854504 1.5006859
-5.9986286 -17.355274 2.1656063
-105.7844 -11.100578 8.8322639
-2.4759274 -9.3477955 1.4983838
-6.0574408 -17.37281 2.1686511
-2.5083497 -9.3642197 1.5005374
-6.1079197 -17.380083 2.1707308
-6.1565733 -17.369909 2.1715477
-2.5677047 -9.3747883 1.5031369
-6.2096128 -17.377926 2.1737757
-2.7094154 -9.629076 1.5252687
-6.2477188 -17.357321 2.173553
-2.6541128 -9.4455261 1.5107865
-6.3163576 -17.390083 2.178009
-2.660089 -9.4009237 1.50789
-6.3622632 -17.381729 2.1789002
-2.6827126 -9.3946924 1.5081871
-6.4172416 -17.396959 2.1817224
-2.6883626 -9.3454876 1.5088348
-6.4695692 -17.393347 2.190459
-2.6963458 -9.3062029 1.5063717
-6.5043211 -17.360821 2.1893394
-2.7225413 -9.3077917 1.5073421
-2.7395892 -9.283473 1.5062225
-2.7763901 -9.3025246 1.5087602
-6.6585164 -17.359514 2.1943405
-2.8366349 -9.3739853 1.5157019
-6.725399 -17.397488 2.199192
-2.8678274 -9.3804731 1.5171947
-6.779994 -17.401257 2.201282
-2.8947897 -9.3781204 1.5179411
-6.8458157 -17.427588 2.2053127
-2.9152822 -9.3669481 1.5178665
-6.8606811 -17.35841 2.2010581
-2.9331543 -9.3461437 1.5170455
-6.9305191 -17.392275 2.2057605
-2.9818645 -9.387145 1.521524
-6.9962258 -17.417191 2.2097166
-3.0084944 -9.3879538 1.5224943
-7.0518198 -17.429619 2.2124782
-3.0311768 -9.3743305 1.5223449
-7.0873909 -17.389862 2.2109854
-3.0880973 -9.4322939 1.5213492
-7.157537 -17.426342 2.2029247
-3.0971634 -9.3981466 1.5193516
-7.2031798 -17.418348 2.2039607
-3.1207514 -9.3860312 1.5193516
-7.2640166 -17.427605 2.2066982
-3.1322589 -9.3548746 1.5176499
-7.3050928 -17.40638 2.2066982
-3.2116351 -9.4562855 1.5272683
-7.3665285 -17.428221 2.2103236
-3.2294936 -9.432663 1.5263064
-7.4312429 -17.443836 2.2136531
-3.2232108 -9.3655519 1.5215712
-7.4721828 -17.417898 2.2133572
-3.2509913 -9.3695803 1.5228291
-7.5204463 -17.417698 2.2150588
-3.2855105 -9.3776846 1.5246048
-7.5817461 -17.425888 2.2177963
-7.6516399 -17.453638 2.2221615
-3.3586781 -9.4091358 1.52934
-7.6980715 -17.445221 2.2232714
-3.3869982 -9.4070873 1.5302278
-7.7645373 -17.465704 2.2270448
-3.4055314 -9.3870077 1.5295619
-7.8040791 -17.436398 2.226527
-3.454608 -9.4267378 1.5340011
-7.8613491 -17.447208 2.2293384
-3.5022218 -9.4570274 1.5397853
-7.9287024 -17.464241 2.2367289
-3.486825 -9.3776064 1.5339255
-7.9774351 -17.455042 2.2379158
-8.0311813 -17.458523 2.2401409
-3.5570235 -9.3986006 1.537931
-8.0861197 -17.452282 2.2417729
-3.5889313 -9.4040813 1.5394886
-8.1516972 -17.472313 2.2455556
-3.5906608 -9.358325 1.5365217
-8.1873817 -17.443125 2.2449625
-3.6682932 -9.4396 1.5448291
-8.2472486 -17.444853 2.2473359
-3.6577051 -9.3704634 1.5398595
-8.3019552 -17.444904 2.2494128
-3.6932311 -9.3836946 1.5420847
-8.3721352 -17.475248 2.2540858
-3.7172694 -9.3708792 1.5421588
-8.4278755 -17.468811 2.2557919
-3.7590914 -9.3904467 1.5450517
-8.4770832 -17.45476 2.2567561
-3.7553587 -9.3361912 1.541343
-8.5299044 -17.454254 2.2587588
-3.7878318 -9.3396473 1.5428264
-8.6098642 -17.49188 2.2643218
-3.8258314 -9.3522043 1.5451258
-8.6602049 -17.479 2.2654345
-3.8361583 -9.3221455 1.5445783
-8.7231655 -17.494566 2.2708437
-3.8444901 -9.2830858 1.5423503
-8.7712078 -17.473703 2.2713637
-3.8821793 -9.2967434 1.5447268
-8.8461504 -17.504688 2.2763395
-3.896843 -9.2741871 1.5438356
-8.9262218 -17.547237 2.2822812
-7.877223 -17.42869 2.1721387
-3.4846611 -9.3548651 1.5003493
-7.9286952 -17.42487 2.1737049
-3.4886041 -9.3126354 1.4977865
-7.9846921 -17.432888 2.1761963
-3.5409491 -9.3515244 1.5021288
-8.0319719 -17.413313 2.1766236
-3.5765443 -9.3639927 1.5041933
-8.097826 -17.43454 2.1803253
-3.6132646 -9.380229 1.5065424
-8.1516714 -17.437805 2.1824608
-3.6498356 -9.3897715 1.5084646
-8.2081232 -17.433878 2.1842406
-3.6524081 -9.3414268 1.5034692
-8.2742052 -17.450417 2.1838624
-3.6708827 -9.3252602 1.5031142
-8.3156834 -17.431198 2.1841464
-3.7124457 -9.3451872 1.5058832
-8.3750057 -17.435301 2.1865604
-3.7448592 -9.3489504 1.5073032
-8.4265938 -17.425732 2.1878383
-3.768714 -9.3418446 1.5077292
-8.488636 -17.441494 2.1911044
6.8386931 -9.4230747 1.5224258
10.689129 -16.106522 2.0936203
-3.798131 -9.3381891 1.5085812
-8.5459003 -17.437357 2.1929502
6.8033919 -9.4163971 1.5206949
10.634577 -16.106407 2.0916009
-3.832253 -9.3463774 1.5103562
-8.6004095 -17.435818 2.1948674
6.7814789 -9.4289122 1.5206949
10.561916 -16.06715 2.0864081
-3.8591173 -9.3440762 1.5112082
-8.6617622 -17.449339 2.1979914
6.7579012 -9.4364443 1.5233612
10.531136 -16.09763 2.0925024
-3.8846235 -9.3334503 1.5114923
-8.7207012 -17.44717 2.2000504
6.7227135 -9.4294739 1.5216236
10.476303 -16.096161 2.0904028
-3.9319038 -9.363061 1.5151131
-8.7854128 -17.461826 2.2033873
6.700767 -9.4417953 1.5216236
10.424094 -16.091969 2.0882308
-3.9422941 -9.3329573 1.5136222
-8.8295021 -17.44556 2.2040265
6.6645107 -9.4263458 1.5193067
10.370157 -16.080814 2.085552
-3.9693103 -9.3246002 1.5141191
-8.8886061 -17.442848 2.2060854
6.6035604 -9.3721886 1.513587
10.324038 -16.094166 2.0847557
-4.0092773 -9.3413439 1.5166752
-8.9693022 -17.482716 2.2116234
6.5887966 -9.3970213 1.514673
10.270142 -16.08609 2.082294
-4.0469575 -9.3559914 1.5190182
-9.0170546 -17.471806 2.2127593
6.5668678 -9.4068346 1.5145283
10.221592 -16.083855 2.0804114
-9.0873499 -17.486279 2.2104883
6.5539303 -9.4394121 1.5161934
10.184375 -16.113039 2.0809908
-4.1159711 -9.3663712 1.5192015
-9.1368284 -17.474039 2.2116199
6.5254741 -9.4393368 1.5151799
10.133428 -16.109653 2.0789635
-4.1307459 -9.3434401 1.5183529
-9.1862011 -17.465168 2.2129636
6.4993114 -9.4412775 1.5143834
10.07668 -16.091576 2.075778
-4.1418505 -9.3089504 1.5166557
-9.243638 -17.458015 2.2147315
6.4654784 -9.4351091 1.5127907
10.033427 -16.109245 2.0754158
-4.1970949 -9.3467216 1.521111
-9.3212557 -17.48634 2.2194698
6.3846035 -9.3380623 1.5035958
9.9953136 -16.132872 2.075633
-9.3822298 -17.495079 2.2223692
6.3719378 -9.3646126 1.504899
-9.43929 -17.490021 2.2242787
6.345201 -9.3687916 1.5042474
-4.2967873 -9.3572817 1.525637
-9.4890432 -17.473297 2.225198
6.3271379 -9.389492 1.5020156
-4.2987537 -9.3143654 1.5230911
-9.5333748 -17.455276 2.2258346
6.3173828 -9.42202 1.5038188
9.7906132 -16.112118 2.0620315
-4.2962704 -9.2591772 1.5196259
-9.6217632 -17.494474 2.2317042
6.2937016 -9.4342756 1.5038188
9.5785904 -15.801849 2.0344093
-4.3910956 -9.3578863 1.5293852
-9.6784477 -17.491386 2.2337551
6.2655239 -9.4334364 1.502809
9.4862576 -15.713543 2.0254664
-9.7468481 -17.509586 2.2375741
6.2678981 -9.4901972 1.5066314
9.4454145 -15.721303 2.024601
-4.4494438 -9.3500071 1.5312239
-9.8080578 -17.505581 2.2397664
6.2563658 -9.5266495 1.5086508
9.3891296 -15.709492 2.0219324
-4.4658599 -9.327529 1.5305166
-9.8601093 -17.494617 2.2411807
6.2166643 -9.5030613 1.5057659
9.3551903 -15.734275 2.0224373
-4.4927306 -9.3227682 1.5292075
-9.922533 -17.502693 2.2401812
6.1391735 -9.401392 1.4964623
9.2943172 -15.701637 2.0182543
-9.9784994 -17.490011 2.2416625
6.1190166 -9.4201622 1.4970393
9.252634 -15.718092 2.0179658
-10.058311 -17.51981 2.2466702
6.0988221 -9.4345284 1.4973278
9.2125864 -15.730349 2.0174611
-4.5858755 -9.3190441 1.5327342
-10.098007 -17.493105 2.2466702
6.0489531 -9.3863678 1.4924958
9.1503716 -15.693704 2.0129895
-4.6251731 -9.3265686 1.5347795
-10.193433 -17.53793 2.2532299
6.0497303 -9.4478073 1.4966066
9.1164293 -15.725524 2.0139992
-4.6455736 -9.3079853 1.5344975
-10.267752 -17.554529 2.2572503
6.0094271 -9.4230204 1.4936497
9.0625935 -15.712742 2.0114028
-4.6619859 -9.2873316 1.5339332
-10.333403 -17.565111 2.2605653
5.9883766 -9.4332085 1.4936497
9.036376 -15.749236 2.0129895
-4.6861415 -9.2742815 1.5341449
-10.425692 -17.606882 2.2668428
5.9646416 -9.4423046 1.4954538
8.9837914 -15.738598 2.0138969
-4.7318959 -9.2923994 1.5371072
-10.526025 -17.659513 2.2741077
5.9179115 -9.4031143 1.4913323
8.925127 -15.714826 2.010426
-4.7560139 -9.2827702 1.5375304
-10.585514 -17.659716 2.2765763
5.9098301 -9.4403772 1.4935739
8.893343 -15.739628 2.0110769
-4.782156 -9.2704668 1.537883
-10.727695 -17.76716 2.2888491
5.89398 -9.4683208 1.4949477
8.8421059 -15.734737 2.0091245
-4.8037481 -9.2553177 1.537883
-11.155146 -18.285866 2.3373759
5.8480196 -9.4274874 1.4907539
8.7835922 -15.706245 2.0053647
-4.8474917 -9.2733402 1.5407749
-11.207846 -18.272545 2.3387866
5.8372211 -9.459384 1.4925616
8.7669582 -15.763428 2.0086908
-4.8832293 -9.2742748 1.5423267
-11.295069 -18.296682 2.3438649
5.8040562 -9.450058 1.4908985
8.7162399 -15.759011 2.0068107
-4.9166303 -9.275404 1.5459337
-11.368668 -18.308447 2.351928
5.7678537 -9.4291964 1.4883678
8.6669378 -15.749537 2.0046415
-4.9402108 -9.2645102 1.5462873
-11.421535 -18.294552 2.3533425
5.7459822 -9.4370556 1.4882231
8.6244564 -15.750758 2.0034122
-4.9692121 -9.2556372 1.5469944
-11.493839 -18.296515 2.3565249
5.7138281 -9.429203 1.4867047
8.5739384 -15.745898 2.0015323
-5.0102119 -9.2668476 1.5493989
-11.598238 -18.349615 2.3640919
5.6950827 -9.446209 1.4872832
8.5300579 -15.747541 2.000303
-5.0343747 -9.256505 1.5498233
-11.660493 -18.347704 2.3666379
5.6521149 -9.4067764 1.4833062
8.4777498 -15.726171 1.9972663
-5.0668678 -9.2520609 1.5509548
-11.707861 -18.314291 2.3667085
5.6383567 -9.4395618 1.4851139
8.4428806 -15.755569 1.9982061
-5.1040106 -9.2574053 1.5528642
-11.788077 -18.332712 2.3712347
5.5998807 -9.4118614 1.482077
8.3861141 -15.727444 1.9945908
-5.1426706 -9.2663946 1.5550566
-11.848761 -18.327864 2.3735683
5.5890236 -9.4442978 1.4839571
8.3466406 -15.734165 1.9938676
-5.1717911 -9.2569122 1.5557637
-11.916432 -18.321308 2.3761144
5.5590677 -9.4403811 1.4828
8.306613 -15.751653 1.9938676
-5.1994619 -9.2472067 1.5564002
-12.008098 -18.350138 2.3817718
5.532742 -9.4422493 1.4821494
8.2660923 -15.763926 1.9935062
-5.238862 -9.2566214 1.5586632
-12.076033 -18.353987 2.3849542
5.5124178 -9.4531288 1.482294
8.2269859 -15.771236 1.9928555
-5.2888756 -9.2762547 1.561987
-12.148114 -18.355768 2.3882074
5.4738674 -9.426199 1.4793293
8.1688566 -15.742096 1.9891677
-5.3019199 -9.2468271 1.5608556
-12.199675 -18.330158 2.3889854
5.4449768 -9.4215527 1.4781724
8.1204128 -15.73518 1.9872878
-5.3428245 -9.2576046 1.5600027
-12.289375 -18.361624 2.3881626
5.4280891 -9.4403152 1.4789678
8.085968 -15.752901 1.9875047
-5.3643284 -9.2374725 1.5597913
-12.355171 -18.350527 2.3904166
5.3994799 -9.4385872 1.4780278
8.0372524 -15.749048 1.9858418
-5.4441204 -9.296526 1.5666945
-12.414562 -18.338032 2.3923185
5.3868518 -9.4702234 1.4798355
8.0061321 -15.778893 1.9869986
-5.5156078 -9.3459148 1.5726819
-12.497889 -18.359806 2.3972492
5.3434124 -9.4249611 1.475497
7.9574542 -15.762149 1.9844677
-5.5193701 -9.3022938 1.5703573
-12.33465 -18.053705 2.372525
5.3160372 -9.425683 1.474774
7.9129276 -15.767814 1.9836001
-5.5206261 -9.2592983 1.5679624
-12.367667 -18.008156 2.371398
5.3051109 -9.4616966 1.4769433
7.8651462 -15.756808 1.9815032
-5.5720329 -9.2821083 1.5715548
-12.458454 -18.03969 2.3772445
7.8287883 -15.769443 1.9813585
-5.6394739 -9.3194799 1.5766969
-12.541898 -18.050804 2.3816116
5.2548389 -9.466547 1.4720628
7.8080587 -15.83394 1.9787643
-5.6739049 -9.3182936 1.5781761
-12.669939 -18.124561 2.3915436
5.2158747 -9.4328241 1.4686821
7.8057079 -15.936609 1.9857419
-5.685627 -9.2902813 1.5771196
-12.917615 -18.350672 2.415493
5.2062674 -9.4701672 1.4709839
7.8112192 -16.055967 1.9940863
-5.7077751 -9.2700624 1.5769787
5.1657381 -9.4369373 1.467603
7.8095055 -16.171791 2.0019989
-5.7577429 -9.2861156 1.5801485
5.1432552 -9.4467773 1.467675
7.7719936 -16.192738 2.0024307
-5.7619486 -9.2488995 1.5782466
-13.148931 -18.364626 2.4267635
7.7279801 -16.187889 2.0009201
-5.909831 -9.3847656 1.5926163
-13.248774 -18.395201 2.4330325
5.0723772 -9.3937922 1.462136
7.6715441 -16.159548 1.997467
-5.92033 -9.3512516 1.5889533
-13.32994 -18.402279 2.432621
7.6374917 -16.189264 1.9986181
-6.0018792 -9.407814 1.5958381
-13.39517 -18.396629 2.4352906
5.0307169 -9.4159355 1.4625676
7.5891423 -16.172215 1.9961724
-5.983963 -9.3380003 1.591131
-13.479946 -18.403734 2.4395759
5.0050001 -9.4193916 1.462136
7.5442147 -16.177713 1.9953811
-6.0418177 -9.3634233 1.5952058
-13.549548 -18.399178 2.4425266
4.985466 -9.4339828 1.4626396
7.4955411 -16.163696 1.9931512
-6.0895982 -9.3781366 1.5982265
-13.638075 -18.420519 2.4477956
7.4501824 -16.15354 1.9912808
-13.718859 -18.421494 2.4515893
4.9403305 -9.4496536 1.4625676
7.4090738 -16.168705 1.9912808
-6.1337337 -9.3385611 1.5980861
-13.778057 -18.403513 2.4533455
7.3649659 -16.166183 1.9899859
-6.1766529 -9.3469219 1.6005449
-13.861334 -18.417297 2.4579823
4.8988948 -9.4700251 1.4619902
7.3204789 -16.157608 1.9866407
-6.2323742 -9.364769 1.6041279
-13.950613 -18.427086 2.4626892
4.855341 -9.4236126 1.4576797
7.2810054 -16.177019 1.9869998
-14.018193 -18.41806 2.4653587
4.8239326 -9.4048548 1.4555964
7.2327485 -16.162222 1.9847727
-6.2973142 -9.3540659 1.6065867
-14.088523 -18.415478 2.4685202
4.8097501 -9.4315948 1.4571052
7.1997623 -16.185305 1.985563
-6.3469582 -9.3639946 1.609467
-14.212552 -18.464161 2.4770207
4.7831459 -9.4316778 1.4564586
7.149539 -16.174091 1.9835515
-6.375391 -9.3509579 1.6100993
-14.293667 -18.466047 2.4809549
4.7625647 -9.4460945 1.4569614
7.1038165 -16.170473 1.9821866
-14.397185 -18.503775 2.48791
4.7340708 -9.4291782 1.4550936
7.0671721 -16.178032 1.9818273
-6.4381752 -9.33494 1.6122069
-14.498327 -18.524006 2.4938114
4.6974268 -9.3995619 1.4521481
7.0143127 -16.158119 1.9791691
-6.4736686 -9.32967 1.6136119
-14.59728 -18.544643 2.4996424
4.6800146 -9.4230022 1.4533694
6.9850636 -16.202066 1.98154
-6.5416737 -9.3644667 1.6187404
-14.736193 -18.616871 2.5101802
6.9390697 -16.186798 1.9793847
-14.921152 -18.7327 2.5252845
4.6438761 -9.4608889 1.4551654
6.8944559 -16.185352 1.9782352
-6.5999794 -9.3386459 1.6201456
-15.455528 -19.237545 2.5781147
6.8569388 -16.205042 1.9787383
-6.6338825 -9.3344107 1.6215506
-15.537579 -19.241161 2.5822597
4.585815 -9.4329624 1.4518607
6.795907 -16.14316 1.972991
-6.6906614 -9.3501167 1.6251335
-15.640865 -19.256914 2.5880907
4.5524383 -9.411109 1.4495618
6.7527103 -16.15015 1.9724882
-6.7196407 -9.3383274 1.6259062
-15.707314 -19.238789 2.5903389
4.5257425 -9.4034042 1.4484124
6.7176566 -16.171791 1.9732065
-6.7438025 -9.3229256 1.6262575
-15.808054 -19.261696 2.5964508
6.6870351 -16.202133 1.9746432
-6.8054266 -9.3431282 1.6303322
-15.899981 -19.263426 2.6010172
4.4949856 -9.4613581 1.4517889
6.6366391 -16.186558 1.9724162
-6.8318071 -9.3281469 1.630824
-15.961333 -19.238796 2.6027033
6.6037788 -16.21537 1.9737093
-6.8797884 -9.3381996 1.6337043
-16.078405 -19.277859 2.6105015
4.4401731 -9.4378176 1.4489152
6.5577798 -16.197166 1.9714105
-6.9105725 -9.3242521 1.6344771
-16.154791 -19.261461 2.6133819
4.4173241 -9.4480038 1.4491308
6.5084758 -16.183979 1.969399
-6.9808431 -9.3559484 1.6396055
-16.258829 -19.281645 2.6195641
4.388751 -9.4333906 1.4474785
6.4686217 -16.190182 1.9689679
-16.345533 -19.286427 2.63164
4.3753595 -9.4650002 1.4494181
6.4339905 -16.20793 1.9694707
-7.0564899 -9.3473415 1.6465042
-16.443546 -19.291801 2.6367888
4.3380394 -9.4274826 1.4459698
6.3845654 -16.19343 1.9673874
-7.0315347 -9.2757463 1.6414962
-16.51709 -19.274506 2.6395397
6.3395691 -16.187654 1.9660225
-16.619268 -19.294277 2.6456761
4.2919354 -9.4331722 1.4453951
6.2998991 -16.188314 1.9652321
-7.1946077 -9.3598232 1.6540511
-16.7199 -19.304558 2.6512482
6.2632565 -16.210331 1.9660225
-7.2611847 -9.3836651 1.6586359
-16.806507 -19.299713 2.6553392
4.2380829 -9.4185762 1.4432399
6.2210755 -16.213562 1.9653759
-7.3024812 -9.3844252 1.6607518
-16.897003 -19.30579 2.6602058
4.2195215 -9.433238 1.4420593
6.1766157 -16.197313 1.9601152
-7.3471322 -9.3831902 1.6629384
-17.010075 -19.323683 2.666836
4.1936717 -9.4325733 1.4414861
6.1270795 -16.180159 1.9578938
-7.3567371 -9.3493519 1.6616688
-17.091118 -19.315434 2.6705039
6.099864 -16.229446 1.9608316
-7.4267578 -9.3789415 1.6667471
-17.182682 -19.321207 2.675441
4.1464233 -9.4297924 1.4403396
6.051013 -16.196699 1.9575355
-7.4264092 -9.3314648 1.6642785
-17.257282 -19.29837 2.6780508
4.1629906 -9.5809088 1.4513743
6.006659 -16.196983 1.9566758
-7.5256176 -9.3881521 1.6722486
-17.378296 -19.32939 2.6858094
4.091444 -9.408721 1.4377601
5.8186827 -15.664939 1.9152598
-7.5424867 -9.3631573 1.6718254
-17.483986 -19.34796 2.6921575
4.0740299 -9.4276476 1.4387631
5.8431587 -15.893553 1.9319553
-7.5791903 -9.3527927 1.6719314
-17.558975 -19.324289 2.6921804
4.0569601 -9.4585381 1.4406261
5.8864884 -16.21384 1.9555292
-7.6506996 -9.3803902 1.677003
-17.691652 -19.365025 2.7010558
4.0246067 -9.4259024 1.4376884
5.8359208 -16.178045 1.9520183
-7.6841345 -9.371582 1.6782711
-17.784033 -19.368717 2.7059865
3.9955506 -9.4014034 1.4353955
5.8003287 -16.191582 1.9523048
-7.7174211 -9.357275 1.6792572
-17.902849 -19.387007 2.7130306
3.9741597 -9.4161263 1.4360404
5.7593727 -16.203417 1.9523766
-7.759387 -9.3548622 1.6812999
-18.027954 -19.418097 2.7210608
5.7074475 -16.160629 1.948364
-7.7804761 -9.3318996 1.6812294
-18.117764 -19.414021 2.7254984
3.9271736 -9.4152803 1.4351089
5.6701007 -16.173328 1.9485788
-7.7939882 -9.2998514 1.6803137
-18.260521 -19.457243 2.7350781
3.9019854 -9.4116879 1.4343923
5.5957851 -16.047607 1.9382608
-7.8333235 -9.2928267 1.6820042
-18.43515 -19.530325 2.7478278
3.8882785 -9.4533529 1.4371152
5.5586138 -16.06609 1.9389057
-7.8842921 -9.3002901 1.6850332
-19.195719 -20.172817 2.8196762
5.4544482 -15.80406 1.9183409
-7.894846 -9.265358 1.6838357
-19.274872 -20.149378 2.8226347
3.8374906 -9.4369383 1.4350371
5.4461579 -15.936595 1.9276559
-7.9398565 -9.2633295 1.6860898
-19.40695 -20.176022 2.8308761
5.4777641 -16.234732 1.9495103
-7.980361 -9.2602797 1.6880621
-19.497992 -20.170671 2.8353844
3.7818656 -9.3994255 1.4313829
5.4300284 -16.198246 1.9460709
-8.0447559 -9.2743835 1.6921476
-19.611856 -20.174965 2.841583
3.7602949 -9.413641 1.4320278
5.3876753 -16.203445 1.9457128
-8.0833988 -9.2674074 1.6938381
-19.714956 -20.176212 2.8470774
3.7455873 -9.4491873 1.4343207
5.3548908 -16.235291 1.9474325
-8.1412697 -9.2799578 1.6949649
-19.837933 -20.199345 2.8490803
3.7186961 -9.4295139 1.4324577
5.3074841 -16.198444 1.9439931
-8.1995735 -9.2873812 1.6984073
-19.953724 -20.203629 2.8554032
3.698966 -9.4521198 1.4337474
5.2044187 -15.941467 1.9238584
-8.2412243 -9.2825527 1.7003744
-20.061563 -20.207621 2.8613045
3.6745791 -9.4467516 1.4329593
5.2309079 -16.229214 1.9449246
-8.276309 -9.273242 1.7017794
-20.167629 -20.213287 2.8672056
3.6483049 -9.4287739 1.4312396
5.1870837 -16.206249 1.94256
-8.3599787 -9.3030758 1.7076807
-20.276707 -20.209673 2.8728259
3.6235497 -9.429369 1.4308813
5.1509604 -16.238365 1.9442797
-8.4370861 -9.3298559 1.7130902
-20.394321 -20.220976 2.8796406
3.6083617 -9.4646873 1.4331741
5.0719967 -16.063391 1.9304504
-8.471653 -9.3193359 1.714425
-20.501545 -20.226093 2.885612
3.5795009 -9.4341526 1.430523
5.0502801 -16.137997 1.9354663
-8.5442696 -9.3377838 1.7192022
-20.609585 -20.219887 2.8910918
3.5487559 -9.4068298 1.4298775
4.9637952 -15.937323 1.9227746
-8.5502081 -9.2976885 1.7175863
-20.733231 -20.231007 2.8982575
3.5323186 -9.4412527 1.4321046
4.9316859 -15.97811 1.9252172
-8.5906029 -9.291997 1.7194831
-20.835072 -20.229698 2.903667
3.5156703 -9.4667034 1.4336851
4.8612704 -15.823825 1.9130042
-8.7055607 -9.3489275 1.7284052
-20.955414 -20.23666 2.9104815
3.4831977 -9.4257641 1.4302368
4.847826 -15.953047 1.922128
-8.7296581 -9.3246841 1.7285459
-21.058416 -20.227659 2.9156101
3.4592113 -9.424778 1.4298058
4.86093 -16.213923 1.9411657
-8.734417 -9.2869005 1.7270002
3.4393315 -9.434824 1.4302368
4.7335134 -15.776772 1.9076881
-8.7819462 -9.2814837 1.7293186
3.4100516 -9.4119425 1.4281534
4.7147284 -15.890882 1.9156623
-8.8207989 -9.2717781 1.724355
-21.500076 -20.321144 2.9292805
3.3758094 -9.3542347 1.4234838
4.6683731 -15.853477 1.9122858
-8.9651394 -9.3551712 1.736079
-21.622711 -20.334484 2.9365382
3.3487282 -9.326828 1.421113
-9.0388098 -9.371254 1.7408245
-22.580963 -21.05657 3.0223053
3.3251171 -9.3304424 1.4210413
-9.0458517 -9.3332109 1.7394288
-22.726086 -21.080587 3.0313077
3.3010411 -9.3221855 1.4201072
-9.1326151 -9.3651867 1.7456398
-22.820591 -21.064598 3.0357041
3.2959599 -9.409399 1.4263574
-9.1665525 -9.3463945 1.7466166
-22.948587 -21.064598 3.0426829
3.2853391 -9.4837275 1.4316018
4.53755 -16.206951 1.936065
-9.2054167 -9.3352108 1.7482219
-23.080191 -21.075089 3.0503592
3.2560561 -9.4485378 1.4286563
4.4770098 -16.092365 1.9269412
-9.2106371 -9.2973156 1.7467563
-23.180187 -21.062334 3.0552442
3.2271554 -9.4093971 1.4236443
4.468297 -16.251602 1.9352512
-9.3452635 -9.3626938 1.7571545
-23.326553 -21.075874 3.0638978
3.2050593 -9.4222813 1.4242892
4.4209466 -16.225492 1.9327433
-9.3409986 -9.3131123 1.754642
-23.248938 -20.90596 3.0518248
3.1809127 -9.4186535 1.4237159
4.3800054 -16.225832 1.9322419
-9.4150391 -9.3322392 1.7595968
-23.21018 -20.777372 3.0437994
3.1575451 -9.4088993 1.4227128
4.3434734 -16.233213 1.9323134
-9.4789495 -9.3390408 1.7634351
-23.249243 -20.705725 3.0426829
3.1313322 -9.3926668 1.421208
4.2971225 -16.201675 1.9294474
-9.4834957 -9.2967396 1.7617602
-23.440908 -20.759506 3.0557327
3.1118507 -9.4157343 1.422641
4.2321587 -16.058605 1.9182694
-9.5751648 -9.3293304 1.7683201
-23.592854 -20.787691 3.065433
3.0801225 -9.354887 1.4178402
4.2172537 -16.193424 1.927871
-9.6557102 -9.3487644 1.7778394
-23.886017 -20.921867 3.0972559
3.06143 -9.3826485 1.4196317
4.1280093 -15.897213 1.9053001
-9.658658 -9.3049316 1.7760177
-24.238068 -21.101694 3.1250722
3.0419881 -9.4065266 1.4211364
4.0621071 -15.736234 1.8928323
-9.7226954 -9.3139925 1.7800117
-24.385349 -21.122387 3.1342509
3.0209844 -9.4098873 1.4211364
4.1052012 -16.237291 1.929734
-9.7978029 -9.3262529 1.784776
-24.525185 -21.12406 3.1421683
2.9956927 -9.4030247 1.4203482
4.0644879 -16.247646 1.9300206
-9.8385563 -9.3142624 1.7865276
-24.65663 -21.126522 3.1496654
2.9787033 -9.43818 1.4227128
4.0254683 -16.248764 1.9296622
-9.8982887 -9.3189611 1.7901011
-24.79768 -21.140076 3.1582134
2.9534006 -9.4134684 1.4206347
3.9407697 -15.937553 1.9060884
-9.958416 -9.3183212 1.7934642
-25.954235 -21.942005 3.259249
2.9298956 -9.4179792 1.4207065
3.9475002 -16.261538 1.929734
-10.032202 -9.3316746 1.7982287
-26.159351 -21.996393 3.2732623
2.9015336 -9.3770733 1.4147661
3.8484931 -15.852171 1.8943248
-10.103709 -9.3446426 1.8028531
-26.299099 -22.002811 3.2814598
2.8867016 -9.4225273 1.4179065
3.8663392 -16.230446 1.9219463
-10.171803 -9.3491793 1.806917
-26.446812 -22.00185 3.2897978
2.8645284 -9.4365101 1.4186916
3.7851281 -15.953772 1.9010339
-26.582064 -21.999107 3.297365
2.8372204 -9.4009962 1.4158366
3.7393851 -15.900187 1.8966801
-10.26148 -9.330369 1.8111911
-26.72155 -22.003302 3.3054926
2.8192587 -9.4260807 1.4174782
3.748476 -16.235167 1.9210899
-10.308908 -9.318182 1.8133631
-26.899168 -22.023081 3.316493
2.7919614 -9.4022512 1.4154798
3.6508384 -15.81986 1.889971
-10.407477 -9.3465614 1.8187912
-27.013973 -21.998348 3.3185182
2.7706118 -9.4158897 1.4162649
3.6629362 -16.212227 1.9185917
-10.476489 -9.3555641 1.8231294
-27.184238 -22.023842 3.3293641
2.75295 -9.444705 1.4181919
3.6090813 -16.083694 1.9087422
-10.482809 -9.3132973 1.82166
-27.330952 -22.022003 3.3376906
2.7285125 -9.4350615 1.4172641
3.5895905 -16.246227 1.9203761
-10.580925 -9.3400412 1.8284473
-27.512114 -22.0453 3.3490963
2.69982 -9.3905563 1.4137669
3.5519395 -16.268606 1.9216607
-10.655649 -9.3523731 1.8332756
-27.657393 -22.04953 3.3576329
2.6767378 -9.3757267 1.412482
3.5080929 -16.215113 1.9173784
-10.710437 -9.344039 1.8360744
-27.794254 -22.033733 3.3648403
2.6598592 -9.4346523 1.4166217
3.4717836 -16.261662 1.9204473
-27.984236 -22.065289 3.3771553
2.6346455 -9.4091806 1.414552
3.3983088 -15.964339 1.8981788
-10.83147 -9.3441648 1.8430717
-28.119087 -22.059656 3.3847125
2.612972 -9.405798 1.4141237
3.3743663 -16.074944 1.9060299
-10.880901 -9.3311214 1.8453808
-28.282352 -22.061056 3.3942287
2.5920446 -9.432663 1.4159081
3.3520436 -16.246046 1.9183061
-10.984524 -9.3609695 1.852658
-29.490622 -22.831028 3.4969487
2.5653498 -9.3915138 1.4126961
3.3142991 -16.25511 1.918663
-11.029111 -9.3493004 1.8547571
-29.710512 -22.881313 3.511853
2.5426233 -9.3773146 1.4114828
3.275156 -16.236805 1.9170215
-28.795303 -22.098919 3.4256465
-29.904915 -22.898304 3.5238883
2.5191705 -9.3807678 1.4115542
3.2344494 -16.246975 1.9174497
-11.128132 -9.3251781 1.8595152
-30.07468 -22.905746 3.5341043
2.4964676 -9.3742933 1.4109118
3.1545687 -15.84202 1.8873301
-11.201307 -9.3333673 1.8641336
-30.241703 -22.914993 3.5442505
2.4796817 -9.4180737 1.413981
3.11413 -15.799103 1.8839042
-11.22 -9.2970066 1.8637137
-30.4226 -22.919476 3.5550263
2.4557414 -9.4174862 1.4137669
3.0708547 -15.771053 1.8815489
-11.345886 -9.3400097 1.87288
-30.561985 -22.902929 3.5625134
2.4337463 -9.4186115 1.4136955
3.0335369 -15.772665 1.8814061
-11.41857 -9.346756 1.8774283
2.4112873 -9.4050541 1.4125534
3.0058336 -15.862305 1.8877583
-11.364605 -9.2591095 1.870641
-30.923084 -22.920906 3.5844848
2.3903527 -9.4372702 1.4147661
2.9721737 -15.940663 1.893254
-11.422209 -9.2514009 1.8737197
-31.092272 -22.918312 3.5943511
2.363389 -9.3917398 1.4112687
2.9512701 -16.152718 1.9085994
-11.515785 -9.2719917 1.8800874
-31.278133 -22.935707 3.6060364
2.3440638 -9.4129486 1.4126961
2.8851743 -15.806479 1.882905
-11.555138 -9.2492361 1.8814867
-31.460342 -22.935699 3.6168122
2.3177114 -9.381916 1.4102695
2.8712535 -16.130157 1.9064581
-11.685192 -9.292098 1.890933
-31.705952 -22.987453 3.6334658
2.2951193 -9.37397 1.4095558
2.8202729 -15.970119 1.8944674
-11.759903 -9.2983952 1.8956213
-31.741262 -22.899418 3.6319964
2.2720156 -9.3474512 1.407486
2.7764363 -15.872934 1.887116
-11.788109 -9.2672482 1.8960412
2.2545626 -9.4298496 1.4134099
2.7417974 -15.952731 1.8927546
-11.913898 -9.3054934 1.9050677
-33.474464 -23.824699 3.7723618
2.2305927 -9.4032898 1.4113401
2.725296 -16.246916 1.9141665
-12.041502 -9.3461132 1.914304
-33.628944 -23.811333 3.7810383
2.2072856 -9.3717499 1.4089134
2.6750903 -16.057158 1.9000347
-12.08931 -9.3271656 1.9164031
-33.83247 -23.815313 3.7933536
2.1872842 -9.4258404 1.4127676
2.6357517 -16.082314 1.9016762
-12.164598 -9.3300228 1.9210215
-34.035789 -23.827902 3.8060186
2.166497 -9.4447851 1.4140522
2.6112585 -16.290863 1.9168074
-12.247622 -9.3395033 1.9200115
-34.213699 -23.827637 3.8001657
2.5741091 -16.288355 1.9164505
-12.303675 -9.3251848 1.9227953
-34.301483 -23.752674 3.8024623
2.1186414 -9.3970327 1.4103408
2.5319076 -16.278259 1.9155226
-12.397166 -9.3388481 1.92892
-14.187034 -10.506624 2.0816209
2.0965068 -9.3934565 1.409984
2.4858222 -16.146332 1.905673
-12.498975 -9.3574181 1.9357409
-14.175611 -10.445599 2.0785584
2.0743926 -9.3898277 1.4096272
2.4552579 -16.283653 1.9155941
-12.529806 -9.3277092 1.9364369
-14.185417 -10.396387 2.0772362
2.0540931 -9.4367657 1.4129817
2.4153633 -16.285807 1.9155941
-12.627793 -9.341054 1.9428399
-14.195074 -10.34719 2.0759137
2.0283334 -9.3795786 1.4086993
2.3753152 -16.284945 1.91538
-12.651949 -9.3105583 1.9431183
-14.22975 -10.31833 2.0768881
2.0090725 -9.4156284 1.4112687
2.3220682 -15.944314 1.8902564
-12.789591 -9.3483067 1.9528623
-14.29261 -10.303046 2.0800898
2.2989559 -16.296846 1.9098022
-12.837744 -9.3287182 1.9550197
-37.185112 -24.709484 4.012722
1.9638252 -9.4247665 1.4082582
2.2585273 -16.286934 1.9089503
-12.946831 -9.3511038 1.962467
-37.371582 -24.702236 4.0237188
1.9420691 -9.4081287 1.4069802
2.2221675 -16.300152 1.9098022
-13.010807 -9.3389006 1.9658773
-37.63382 -24.725872 4.0404921
1.9181423 -9.4012718 1.4064121
2.1811037 -16.31249 1.9105833
-13.091276 -9.340539 1.9708188
-37.842102 -24.725012 4.0530896
2.1425686 -16.310986 1.9103703
-13.170967 -9.3432531 1.9757605
-38.065659 -24.73785 4.0671487
1.8756766 -9.4144831 1.4072642
2.1056795 -16.31226 1.9103703
-13.250042 -9.3393583 1.9804235
-38.297348 -24.738842 4.0812774
1.8522096 -9.4210815 1.4076902
2.0638762 -16.303852 1.9096603
-13.322262 -9.3347883 1.9880066
-38.543179 -24.757832 4.1060128
1.8314292 -9.461647 1.4106011
2.0255227 -16.306936 1.9098022
-13.392214 -9.3304663 1.9921238
-40.127319 -25.595055 4.2341399
1.8086534 -9.3989344 1.4059861
1.9883151 -16.29528 1.9088793
-13.476503 -9.3286142 1.9972184
-40.426983 -25.628799 4.2537498
1.7848632 -9.3917294 1.4054182
1.9470143 -16.303123 1.9093764
-13.565819 -9.3332996 2.002871
-40.666298 -25.635618 4.2686839
1.7629814 -9.3902683 1.4052762
1.9083014 -16.289371 1.9083114
-13.627625 -9.3230553 2.0062904
-40.897614 -25.64201 4.2831297
1.8719006 -16.313477 1.9100153
-13.748995 -9.3420658 2.0144556
-41.169956 -25.655113 4.3003669
1.7182922 -9.3823318 1.4046371
1.8296399 -16.267458 1.9066074
-13.75651 -9.2950306 2.0131993
-41.41758 -25.657703 4.3157196
1.6968138 -9.4712954 1.4110982
1.7903986 -16.312851 1.9098732
-13.790705 -9.267746 2.0143158
-41.646339 -25.659107 4.3298864
1.7533712 -16.301401 1.9120936
-13.848434 -9.2501945 2.017247
-41.931488 -25.681271 4.34831
1.6522996 -9.4210196 1.4091589
1.7137103 -16.332973 1.9143715
-13.94322 -9.2539635 2.0232484
-42.174072 -25.677195 4.363174
1.6293938 -9.402689 1.4078064
1.6735506 -16.310879 1.9127343
-13.995083 -9.2363939 2.0258305
-42.386742 -25.665852 4.3759451
1.6083229 -9.3833189 1.4063828
1.6366224 -16.301331 1.9120224
-14.117913 -9.2534952 2.0340652
1.5951939 -16.33164 1.9142292
-14.251891 -9.2802973 2.0433469
1.5628924 -9.4330635 1.4100132
1.5567236 -16.326782 1.9138732
-14.342039 -9.2834663 2.0490694
-43.376709 -25.803791 4.4423814
1.5198436 -16.31307 1.9128766
-14.486823 -9.3110542 2.0555212
1.5183179 -9.4017487 1.4077353
1.4783568 -16.309963 1.912663
-14.601027 -9.3246937 2.0631075
1.4967492 -9.3655605 1.4051013
1.4401913 -16.27853 1.9103851
-14.695817 -9.3289318 2.0691626
1.4756081 -9.3877649 1.4067386
1.4033384 -16.28208 1.9106698
-14.826522 -9.3465462 2.0779321
-44.838898 -26.033031 4.5315146
1.4518402 -9.4020958 1.4078064
1.361609 -16.304966 1.9123783
-14.862761 -9.3153362 2.0791154
1.3224773 -16.351162 1.9157953
-14.855398 -9.2621117 2.0768185
1.4090555 -9.3975401 1.4075217
1.2859302 -16.326202 1.9140155
-14.987217 -9.2789993 2.0856576
1.2436142 -16.363724 1.9121649
-15.212501 -9.3500786 2.1022222
-46.740768 -26.48184 4.66605
1.3637521 -9.3899937 1.4044025
1.2059937 -16.321997 1.9091868
-15.284802 -9.3393211 2.1063981
-46.744431 -26.340141 4.6614566
1.3426929 -9.3933868 1.4046861
1.1691804 -16.317221 1.9089031
-15.388929 -9.3390961 2.1129405
-46.725121 -26.168552 4.6544271
1.3186989 -9.4073696 1.4057498
1.1272364 -16.331703 1.9100378
-15.450192 -9.317544 2.1160724
-46.714813 -26.008282 4.6483717
1.2956829 -9.4154749 1.4063878
1.0867558 -16.346125 1.9111722
-15.550154 -9.3204784 2.1224756
-46.881485 -25.954308 4.6570721
1.0496311 -16.349834 1.9115267
-15.652818 -9.3201599 2.1289485
1.2531171 -9.3790064 1.4038353
1.0104237 -16.32415 1.909754
-15.722806 -9.3021946 2.1327763
0.96868181 -16.369421 1.9131577
-15.851537 -9.3187904 2.1414762
1.2084966 -9.4026804 1.4056787
0.93309259 -16.331984 1.9105341
-15.948453 -9.3118725 2.1473923
-48.190582 -26.023228 4.7421918
1.1835637 -9.4328518 1.4079478
0.89104986 -16.341955 1.9113851
-16.035919 -9.3038692 2.1526818
1.1634111 -9.392004 1.4050407
0.85324812 -16.324711 1.9102504
-16.162458 -9.3176241 2.1611729
1.1423078 -9.39396 1.4052534
0.81591988 -16.331772 1.9108887
-16.248363 -9.3036232 2.1661839
1.1152868 -9.4618874 1.4102877
0.77379084 -16.341438 1.9117396
-16.374296 -9.3137751 2.174536
1.0975833 -9.3780928 1.4042606
0.73696566 -16.307383 1.9093995
-16.472534 -9.3115292 2.1807301
-49.785355 -26.074455 4.8453379
1.0753813 -9.4003191 1.4059625
0.6981864 -16.340433 1.9119523
-16.504635 -9.2692604 2.1814263
1.0517735 -9.3990059 1.4059625
0.65589523 -16.35076 1.912874
-16.575039 -9.2502918 2.1853237
1.0295134 -9.404541 1.4064589
0.61737776 -16.348522 1.912874
-16.692625 -9.2565117 2.1930492
1.0094781 -9.3877153 1.4053242
0.58088589 -16.338505 1.9123068
-16.801559 -9.2513809 2.1998701
0.98602819 -9.3842878 1.4051825
0.53882027 -16.343666 1.912874
-16.935989 -9.2603302 2.2087786
0.96353006 -9.3798857 1.4049697
0.4975481 -16.359507 1.9142213
-17.086391 -9.282938 2.2191491
0.93843746 -9.4513988 1.4102877
0.45988035 -16.389168 1.9165611
-17.312168 -9.3322906 2.2251322
0.9183836 -9.398242 1.4065297
0.41985273 -16.362919 1.9148593
-17.417328 -9.3248491 2.2316306
0.89414406 -9.4169846 1.4080187
0.37847042 -16.377483 1.9161358
-17.517311 -9.3189106 2.2378526
0.87779665 -9.3542204 1.4035516
0.34573746 -16.318369 1.9120231
-17.651684 -9.3243017 2.2466323
0.8556385 -9.3466368 1.4031262
0.30545473 -16.319151 1.9123068
-17.792372 -9.3319778 2.2558961
0.83477783 -9.3234692 1.4015663
0.26381731 -16.336332 1.9137957
-17.921768 -9.3382053 2.2643993
0.8106389 -9.3615456 1.4044734
0.2263875 -16.339104 1.9142213
-17.981445 -9.3046379 2.2672338
0.78729963 -9.357605 1.4043316
0.18314505 -16.354979 1.9156394
-18.024313 -9.2676401 2.268893
0.76468277 -9.3654022 1.4050407
0.14384413 -16.360334 1.9162774
-18.260193 -9.3212376 2.2856922
0.74377871 -9.3635235 1.4050407
0.10693502 -16.356039 1.9162066
-18.392651 -9.3196144 2.2941954
0.7232666 -9.3293486 1.4027007
0.064417362 -16.361893 1.9169157
-18.581184 -9.3473053 2.3071923
0.69375086 -9.4087315 1.4086568
0.024756908 -16.369869 1.9177666
-18.684689 -9.33815 2.3136215
0.67599201 -9.3737316 1.4062461
-0.013406754 -16.377899 1.9186175
-18.815767 -9.3338404 2.3219867
0.65353155 -9.3607244 1.4054661
-0.054094791 -16.364054 1.9179084
-18.87487 -9.3016405 2.3248901
0.63277006 -9.3488121 1.404757
-0.094043732 -16.373676 1.918901
-18.975746 -9.287631 2.3461485
0.60806227 -9.3746252 1.4068134
-0.13415194 -16.384167 1.9199646
-19.124022 -9.2915583 2.3559883
0.5869689 -9.3576717 1.4057498
-0.17408133 -16.37793 1.9198229
-19.149164 -9.2412186 2.3561976
0.56681252 -9.3329258 1.4041189
-0.2123785 -16.357075 1.9186175
-19.247585 -9.2272186 2.3622692
0.54444933 -9.3441401 1.4051116
-0.24706507 -16.332603 1.9171283
-19.425617 -9.2398319 2.374342
0.5215497 -9.3366137 1.404757
-0.29365873 -16.371382 1.9203191
-19.57972 -9.246088 2.3846703
0.50041771 -9.3292351 1.4044025
-0.33222198 -16.366865 1.9203191
-19.847033 -9.301919 2.4038615
0.48146391 -9.3112774 1.403268
-0.37238312 -16.388552 1.9222336
-20.020344 -9.3095818 2.4155159
0.4592495 -9.2990112 1.3990738
-0.4103179 -16.352982 1.913754
-20.379072 -9.3986235 2.4416857
0.43933535 -9.2827902 1.3980865
-0.4510231 -16.365582 1.9150236
