# .PCD v0.7 - Point Cloud Data file format
VERSION 0.7
FIELDS x y z
SIZE 4 4 4
TYPE F F F
COUNT 1 1 1
WIDTH 1484
HEIGHT 1
VIEWPOINT 0 0 0 1 0 0 0
POINTS 1484
DATA ascii
-62.562733 -15.251856 0.91769481
0.13973546 -5.0653629 0.75967711
-23.903481 -6.143527 0.8110739
-63.123188 -15.226185 0.91914451
0.1388793 -5.028398 0.75954562
-24.107513 -6.1234894 0.81159562
-25.613464 -6.4682894 0.81574291
0.12448764 -5.0332217 0.75957853
-24.257317 -6.0901823 0.81196785
-64.392365 -15.174244 0.92243457
0.10748339 -5.0464044 0.75964421
-24.500338 -6.0822649 0.81259966
-64.985909 -15.147779 0.92397344
0.097385645 -5.0402255 0.75963324
-24.801392 -6.0781507 0.81338614
-65.631622 -15.109917 0.92564332
0.082446814 -5.0447841 0.75966614
-25.103386 -6.0780363 0.81417781
0.063107491 -5.0663505 0.75976473
-25.403053 -6.0786734 0.81760585
0.052097559 -5.0628681 0.75976473
-25.677807 -6.0644236 0.81834441
-67.576485 -15.01281 0.93746448
0.03793335 -5.0644999 0.75978661
-26.060482 -6.0770483 0.81939244
0.025568962 -5.0635991 0.75979757
-26.365376 -6.0743923 0.82022059
-68.884949 -14.946735 0.94098604
0.017286539 -5.0516729 0.75976473
-26.78207 -6.0849142 0.82136095
-69.642975 -14.912764 0.94303054
-0.0023751259 -5.0699024 0.75985235
-27.224682 -6.1042738 0.82257736
-70.448257 -14.898876 0.9452163
-0.013851881 -5.0661173 0.75985235
-27.587515 -6.108366 0.8235684
-71.063858 -14.850266 0.94686711
-0.024860859 -5.0624571 0.75985235
-28.070023 -6.1257162 0.82489341
-0.037235975 -5.0583105 0.75985235
-28.531162 -6.1393595 0.82615864
-0.049142599 -5.054286 0.75985235
-28.706661 -6.1015186 0.82661754
-34.187115 -7.161458 0.84213746
-0.067706823 -5.072722 0.75993997
-29.305325 -6.1376095 0.82827109
-34.231079 -7.0775356 0.84221351
-0.069147348 -5.0381556 0.75981951
-29.838135 -6.158289 0.82973725
-34.211506 -6.9815168 0.84211028
-0.091581345 -5.0644927 0.75993997
-30.274088 -6.1646175 0.83093196
-0.10258651 -5.0606542 0.75993997
-30.717697 -6.1607542 0.83214289
-0.11495686 -5.0563059 0.75993997
-31.31319 -6.1885185 0.8241871
-0.12640047 -5.0522509 0.75993997
-31.736313 -6.1859722 0.8252241
-0.14627051 -5.0731544 0.76003855
-31.9016 -6.1262074 0.82560384
-81.557205 -14.84856 0.95127666
-0.161659 -5.0769596 0.76007146
-32.674782 -6.1775465 0.82752454
-82.23761 -14.761196 0.95291007
-0.16914463 -5.0617809 0.76002765
-33.202358 -6.1866417 0.8288244
-82.94075 -14.682865 0.95460439
-0.18820882 -5.0797691 0.76011527
-33.805054 -6.195508 0.83030933
-66.990402 -11.775803 0.91419268
-0.18844461 -5.0422215 0.75998378
-34.486847 -6.2214308 0.83199632
-84.564674 -14.518906 0.95852846
-0.2121172 -5.0709386 0.76011527
-34.827202 -6.1919088 0.83282155
-0.2272501 -5.0777979 0.75966781
-35.614769 -6.2218695 0.83477139
-85.037384 -14.162693 0.95954841
-0.23138189 -5.0512013 0.75958246
-36.237217 -6.2253542 0.83630502
-0.24327016 -5.0466938 0.75958246
-37.017395 -6.2616234 0.83824027
-86.221069 -13.930328 0.96237218
-0.25796986 -5.0536246 0.75962514
-37.812775 -6.2813244 0.84020716
-0.28192902 -5.0789366 0.75974256
-37.943554 -6.2007036 0.84049928
-0.29070044 -5.0661116 0.75971049
-39.04871 -6.2717495 0.84325004
-90.484032 -13.89978 0.97286642
-0.30170846 -5.0618148 0.75971049
-39.774441 -6.2701569 0.83703625
-91.442932 -13.796124 0.95717871
-0.30977964 -5.0460505 0.75966781
-40.656841 -6.2954655 0.83905411
-0.33418131 -5.0741997 0.7597959
-40.949127 -6.2376175 0.83970124
-0.34520793 -5.0698032 0.7597959
-42.084679 -6.2824879 0.84230328
-0.35760117 -5.064827 0.7597959
-42.803474 -6.273592 0.84393919
-0.36906457 -5.0601892 0.7597959
-43.72517 -6.2927361 0.84604686
-0.38892317 -5.0774097 0.75988126
-44.147343 -6.2287712 0.84699064
-0.40245056 -5.0750289 0.75989199
-45.495308 -6.2904987 0.85008478
-0.41506004 -5.0729918 0.75990266
-46.355888 -6.289011 0.8520487
-0.42382836 -5.0630012 0.75988126
-46.994553 -6.2419491 0.85349357
-0.43620372 -5.0578213 0.75988126
-48.353451 -6.2882996 0.85661018
-95.747055 -12.021526 0.96645677
-0.45677948 -5.0745821 0.75996667
-49.41745 -6.298111 0.85904378
-95.50428 -11.76569 0.96583211
-0.46780682 -5.0699034 0.75996667
-49.802513 -6.209095 0.85989988
-95.407639 -11.499851 0.96553999
-0.48019981 -5.0646095 0.75996667
-51.804386 -6.3066387 0.8850854
-0.4921205 -5.0594816 0.75996667
-52.960548 -6.310894 0.88817096
-0.49844432 -5.043973 0.75992399
-53.374489 -6.2184029 0.88924843
-0.52087903 -5.0629573 0.76002002
-55.552811 -6.3111153 0.89508927
-104.16643 -11.46962 1.0263238
-0.53987956 -5.0738149 0.76008409
-56.119293 -6.2371235 0.89658093
-104.12492 -11.219437 1.026143
-0.55683899 -5.0823379 0.76013744
-58.63937 -6.3412895 0.90333927
-104.05678 -10.936184 1.0258834
-0.55971384 -5.0554099 0.76005208
-59.239799 -6.2549343 0.90492004
-71.152519 -7.4313087 0.93705493
-0.58075523 -5.0716691 0.76013744
-61.484306 -6.3302097 0.91093647
-0.58454108 -5.050693 0.7580657
-62.378773 -6.2495346 0.91330636
-0.59931016 -5.0504303 0.75808477
-65.094582 -6.3432693 0.92058903
-0.62537336 -5.0771794 0.75819939
-67.144287 -6.3713112 0.92607594
-0.62660074 -5.0508256 0.75812298
-68.328377 -6.294569 0.92922437
-0.65989769 -5.0903025 0.75828534
-71.336975 -6.3787956 0.93729091
-0.67018247 -5.0822868 0.75827581
-74.340889 -6.4555225 0.94534427
-0.66628647 -5.0452938 0.75816119
-76.897636 -6.4601822 0.92201704
-0.68362224 -5.0500803 0.75819939
-77.465927 -6.3070526 0.92329335
-79.382172 -6.4538841 0.92771554
-0.70054066 -5.055028 0.7582376
-80.481125 -6.34832 0.93021876
-0.72037446 -5.0682869 0.75830442
-82.931183 -6.3187294 0.93583632
-0.74374449 -5.0863156 0.75839037
-75.320801 -5.5797615 0.91824877
-84.8526 -6.2403145 0.94023383
-0.75060785 -5.0699854 0.75835216
-75.413719 -5.4083385 0.91843528
-0.77574599 -5.0935979 0.75845724
-80.72831 -5.5505066 0.93065917
-85.667297 -5.8685188 0.94204718
-0.77400208 -5.0585756 0.75835216
-85.751648 -5.6639252 0.94221121
-87.371582 -5.7643318 0.9459458
-0.79582512 -5.0739574 0.75842857
-85.80481 -5.4655266 0.94230556
-89.073395 -5.6605682 0.94983989
-0.80685019 -5.0684986 0.75842857
-89.17289 -5.4309235 0.95003766
-0.82709646 -5.0780501 0.75848591
-89.174316 -5.2129211 0.95001292
-90.821259 -5.3029594 0.95380819
-0.84517074 -5.0853753 0.75853366
-92.554878 -5.1806374 0.95777643
-0.85225582 -5.07196 0.75850499
-0.86465275 -5.065671 0.75850499
-94.26387 -4.7913857 0.96165931
-0.88679743 -5.0806813 0.7585814
-0.89783776 -5.0750132 0.7585814
-98.87941 -4.5180664 0.9626056
-0.91024256 -5.0686059 0.7585814
-0.9325459 -5.0834289 0.75865781
-0.94359231 -5.0776553 0.75865781
-0.95053685 -5.0607648 0.75861961
-108.36534 -3.8447113 0.9834528
-0.96793938 -5.0648155 0.75865781
-0.99411333 -5.0873928 0.75876284
-112.4012 -3.4299393 0.9923206
-1.0019338 -5.0732412 0.75821257
-114.37102 -3.1957436 0.99664891
-1.0083065 -5.0565009 0.75817549
-115.85658 -2.9631958 0.99991137
-1.0248826 -5.0608521 0.75821257
-1.0527008 -5.0823975 0.75831455
-119.24306 -2.4389954 1.0073535
-1.0740795 -5.0940681 0.75837946
-120.72804 -2.1844788 1.0106182
-1.082317 -5.08284 0.75836092
-122.0997 -1.8860397 1.0136329
-1.0947413 -5.0759554 0.75836092
-123.32877 -1.6029587 1.0163355
-1.1062293 -5.0695524 0.75836092
-1.1287258 -5.0838108 0.75843507
-1.135385 -5.0666056 0.758398
-1.1352665 -5.0397305 0.75832385
-1.166566 -5.0690989 0.75845361
-1.1847965 -5.072155 0.75849068
-1.1996676 -5.0703425 0.75850922
-1.2234433 -5.0858994 0.76018858
-1.2339361 -5.0763898 0.76017845
-1.2503395 -5.0769582 0.76020879
-1.2688254 -5.0830631 0.76025933
-1.2628222 -5.0457511 0.76013803
-1.2927365 -5.0688453 0.76025933
-1.3112955 -5.0747981 0.76030993
-1.346436 -5.1049252 0.76046157
-1.3397305 -5.0678782 0.76034027
-1.0954065 -5.0454841 0.741
-1.1049739 -5.0335479 0.741
-1.1235185 -5.0400405 0.73995101
-1.1373737 -5.0390482 0.73994988
-1.1454552 -5.0244679 0.73995155
-1.1568809 -5.0180488 0.73995155
-1.1822739 -5.0373521 0.73994595
-1.2101182 -5.0574751 0.73993993
-1.2162821 -5.0415802 0.73994201
-1.2341146 -5.047102 0.73993939
-1.2494503 -5.0450087 0.73993826
-1.2638751 -5.0434031 0.73993713
4.2986279 -5.014123 0.74833375
-1.276827 -5.0392275 0.73993659
4.2930975 -5.0308151 0.74834949
-1.3036199 -5.0574641 0.73993099
4.2754459 -5.0274029 0.74833375
-1.317078 -5.0529137 0.73993039
4.2462797 -5.0035381 0.7482866
-1.3216141 -5.0354505 0.73993284
4.2411537 -5.0198913 0.74830234
-1.3525553 -5.0590544 0.74153703
4.2288752 -5.0267878 0.74830234
-1.354991 -5.0370822 0.74153537
4.218915 -5.0357037 0.74830627
-1.3685185 -5.0346155 0.74153584
4.1951919 -5.0187168 0.74827087
-1.3991743 -5.0571275 0.74153918
4.1998658 -5.0562935 0.74831808
-1.4081272 -5.0459366 0.7415387
4.1729393 -5.0343103 0.7482748
-1.4345049 -5.0641179 0.7415415
4.1661944 -5.0480042 0.7482866
-1.4392334 -5.043982 0.74154013
4.1371174 -5.0237846 0.74772233
-1.4646411 -5.0592422 0.74154264
4.1257391 -5.0299211 0.74772233
-1.4523771 -5.0150938 0.74153847
4.1161833 -5.0383701 0.74772596
-1.5005841 -5.0643935 0.7415449
4.0914817 -5.0216599 0.74769306
-1.507405 -5.049696 0.74154407
4.0636835 -4.996604 0.74764925
-1.5215757 -5.0476456 0.7415446
4.0528231 -5.002327 0.74764925
-1.5513381 -5.0668864 0.7415477
4.0378785 -5.003541 0.74764198
-1.5469494 -5.0337362 0.741
4.034193 -5.0252776 0.74766386
-1.5775537 -5.0569959 0.741
4.024611 -5.033536 0.74766755
-1.5863229 -5.0443296 0.741
4.0127535 -5.0396366 0.74766755
-1.6116089 -5.0569911 0.741
3.9889052 -5.0222178 0.74763465
-1.6076407 -5.0269017 0.741
3.9779859 -5.0277691 0.74763465
-1.6355927 -5.0424023 0.741
3.9656875 -5.0339837 0.74763465
-1.6573231 -5.0502667 0.741
3.9516625 -5.0344696 0.74762738
-1.6558836 -5.0242438 0.741
3.9341872 -5.0268211 0.74760908
-1.6867211 -5.0435605 0.741
3.921891 -5.0329223 0.74760908
-1.6987369 -5.0366535 0.741
3.9104922 -5.0385437 0.74760908
-1.7179515 -5.0413437 0.741
3.8879578 -5.0202246 0.74757624
-1.7484834 -5.0595574 0.741
3.8603234 -4.9945803 0.74753243
-1.7533681 -5.0420256 0.741
3.8541098 -5.0106077 0.74754703
-1.758284 -5.0256176 0.741
3.8432181 -5.0158491 0.74754703
-1.7867448 -5.0403814 0.73988378
3.8309503 -5.0217142 0.74754703
-1.8204228 -5.0633659 0.73987645
3.8191228 -5.0273333 0.74754703
-1.8215051 -5.0423679 0.73987967
3.8086483 -5.0322781 0.74754703
-1.8372588 -5.0384779 0.73987854
3.798821 -5.0433626 0.74755436
-1.8739774 -5.0651636 0.73987031
3.7869396 -5.0489006 0.74755436
-1.8895627 -5.063695 0.73986882
3.7649055 -5.0300488 0.74752146
-1.8981354 -5.050395 0.73986989
3.7518358 -5.0328403 0.74751782
-1.9186227 -5.0537415 0.73986709
3.7253995 -5.0062714 0.74747401
-1.9445119 -5.0663929 0.73986226
3.7338614 -5.0539141 0.74753243
-1.9581037 -5.0589714 0.73986185
3.7034659 -5.0194201 0.74747765
-1.9678838 -5.0482373 0.73986244
3.6980772 -5.0378904 0.74749589
-1.9950643 -5.062242 0.7398572
3.6752291 -5.0159988 0.74745941
-1.9930201 -5.0334516 0.73986185
3.6641436 -5.0241098 0.74746305
-2.0155041 -5.0399141 0.73985833
3.6515903 -5.0264297 0.74745941
-2.0399108 -5.0497723 0.73870802
3.6336439 -5.0150881 0.74743748
-2.0622549 -5.0538187 0.73870164
3.633008 -5.0473013 0.74747401
-2.0667078 -5.0358343 0.73870611
3.6076965 -5.0199289 0.74743021
-2.1047721 -5.0634012 0.73868889
3.597935 -5.027297 0.74743384
-2.1272473 -5.0672064 0.73868257
3.5753489 -5.0082517 0.747401
-2.1380486 -5.05653 0.73868328
3.5635552 -5.0132327 0.747401
-2.1538429 -5.0542841 0.7386803
3.5526586 -5.0178051 0.747401
-2.1592383 -5.0365858 0.73868442
3.5408428 -5.0227318 0.74543142
-2.1783252 -5.0366459 0.73867995
3.5156109 -4.9951258 0.74540108
-2.2187138 -5.0658674 0.73866159
3.5047565 -4.9995875 0.74540108
-2.2365732 -5.063077 0.73865819
3.4969463 -5.0154333 0.74541122
-2.2529182 -5.060183 0.73865521
3.4965615 -5.0472002 0.74543649
-2.2651772 -5.0530052 0.73865443
3.474678 -5.0244279 0.74541122
-2.2800164 -5.0462317 0.73865294
3.4634728 -5.0320616 0.74541372
-2.2969751 -5.0439625 0.741
3.4553092 -5.0447569 0.74542135
-2.3250952 -5.0564814 0.741
3.4432685 -5.0463524 0.74541879
-2.3540645 -5.0670185 0.741
3.4192204 -5.0211573 0.74539101
-2.3698926 -5.0630136 0.741
3.4078507 -5.0255728 0.74539101
-2.3821805 -5.0555491 0.741
3.3969259 -5.0297871 0.74539101
-2.4162445 -5.0718637 0.741
3.3877559 -5.0427094 0.74539858
-2.4176941 -5.0491986 0.741
3.3727658 -5.0390034 0.74539101
-2.4492476 -5.06495 0.741
3.3535626 -5.0211978 0.74537075
-2.4537387 -5.0460091 0.741
3.3417387 -5.0256262 0.74537075
-2.4781888 -5.051064 0.741
3.3258333 -5.0190353 0.74536067
-2.5105546 -5.0672741 0.741
3.3220005 -5.0423088 0.74537838
-2.5078907 -5.0388889 0.741
3.3106699 -5.0495777 0.74538088
-2.5496516 -5.0649667 0.741
3.295244 -5.0427146 0.74537075
-2.5714717 -5.0682139 0.73857546
3.2882431 -5.0576973 0.74538088
-2.5801091 -5.0531373 0.73857766
3.2748857 -5.0593667 0.74537838
-2.619617 -5.0758586 0.73856121
3.2644017 -5.0661988 0.74538088
-2.6230388 -5.0574369 0.73856568
3.2300858 -5.0037422 0.7453202
-2.6521077 -5.0658484 0.73855597
3.2217062 -5.0190868 0.74533033
-2.6822505 -5.0771546 0.73854512
3.2103424 -5.0230303 0.74533033
-2.6978431 -5.072597 0.7385425
3.2032259 -5.0378742 0.74534047
-2.7225704 -5.0755639 0.73853534
3.1871295 -5.0309887 0.74533033
-2.7244024 -5.054399 0.73854101
3.1757374 -5.0348473 0.74629265
-2.7341375 -5.0431447 0.73854172
3.1685133 -5.0496392 0.74630499
-2.7680039 -5.056119 0.73852938
3.1506214 -5.037076 0.74628645
-2.7891006 -5.0555663 0.73852414
3.1341767 -5.0270853 0.74627101
-2.8112636 -5.0579433 0.73851776
3.1250687 -5.0362382 0.74627715
-2.8435707 -5.0695305 0.73850614
3.1050816 -5.0150137 0.74624938
-2.8502946 -5.0528493 0.73788643
3.0941691 -5.0216117 0.74625248
-2.871881 -5.0542841 0.73787898
3.0877016 -5.0390606 0.74626791
-2.9074492 -5.0680208 0.73786259
3.0683184 -5.0206213 0.74624318
-2.9256084 -5.0645452 0.73785788
3.0639555 -5.0465622 0.74626791
-2.9493003 -5.0678749 0.737849
3.04603 -5.0276027 0.74624318
-2.9717488 -5.0669732 0.73784196
3.0294256 -5.0174046 0.74622774
-2.9979796 -5.0718365 0.73783165
3.0231967 -5.0376992 0.74624628
-3.0117335 -5.0642529 0.7378298
3.0020604 -5.0073791 0.7462092
-3.0376103 -5.066659 0.73782045
2.9906592 -5.0138736 0.7462123
-3.0605853 -5.0677223 0.73781246
2.9709606 -4.9891801 0.74618137
-3.0892086 -5.0754948 0.7378003
2.9733729 -5.0373511 0.74623084
-3.0894837 -5.0508633 0.7378087
2.965158 -5.055027 0.74624628
-3.1116102 -5.0498705 0.73780173
2.9459243 -5.0331583 0.74621844
-3.1403267 -5.0573945 0.73778951
2.9349833 -5.0363092 0.74621844
-3.1468272 -5.0401559 0.73779327
2.9231222 -5.0396938 0.74621844
-3.1881561 -5.0584602 0.73777318
2.9136333 -5.0515099 0.74622774
-3.2005692 -5.0489888 0.73777223
2.8939929 -5.0235443 0.74619377
-3.2290032 -5.0538383 0.73776096
2.882164 -5.0268269 0.74619377
-3.2809203 -5.0821023 0.73773384
2.8703268 -5.0300808 0.74619377
-3.2913251 -5.0703363 0.73773432
2.8655243 -5.0556793 0.74621844
-3.3183181 -5.0723081 0.73772448
2.8478434 -5.0392065 0.74619687
-3.3506758 -5.0812888 0.73771042
2.826653 -5.0054455 0.74381274
-3.3687272 -5.0769067 0.73770577
2.8187594 -5.0196548 0.74381948
-3.4014211 -5.0840397 0.73769218
2.8064847 -5.0228686 0.74381948
-3.4101868 -5.0694861 0.73769403
2.7951128 -5.025816 0.74381948
-3.4450762 -5.0812407 0.73767811
2.7812886 -5.0172653 0.74381274
-3.4652815 -5.0758171 0.73767298
2.7726097 -5.034584 0.74382114
-3.490905 -5.0773726 0.73766363
2.760499 -5.0346088 0.74381948
-3.4815269 -5.046236 0.73834175
2.7460332 -5.0231142 0.74381107
-3.5398929 -5.0770183 0.73831743
2.737236 -5.0403676 0.74381948
-3.5518992 -5.064374 0.73831743
2.7198458 -5.0204811 0.743806
-3.5657959 -5.0553541 0.73831588
2.7109849 -5.0316582 0.74381107
-3.6033888 -5.0666971 0.73830241
2.6971073 -5.0259337 0.743806
-3.6125133 -5.0512285 0.7383039
2.6852727 -5.0287256 0.743806
-3.6607401 -5.0739541 0.73828447
2.6769929 -5.0426922 0.74381274
-3.6947138 -5.0803938 0.7382732
2.6679363 -5.0598164 0.74382114
-3.6940479 -5.0566263 0.73827958
2.6506405 -5.0367184 0.743806
-3.7331743 -5.0703192 0.73826498
2.6396916 -5.0391893 0.743806
-3.7542872 -5.0645781 0.73826051
2.6280026 -5.0447998 0.74380767
-3.7860608 -5.0702696 0.73825002
2.6084208 -5.010118 0.74378574
-3.7942276 -5.0554152 0.73825151
2.6000173 -5.0239444 0.74379253
-3.8415217 -5.0729365 0.73823351
2.5938683 -5.0552397 0.74380934
-3.8698058 -5.075017 0.73475605
2.5812058 -5.0519447 0.743806
-3.8852627 -5.0664802 0.73475099
2.5672226 -5.0399184 0.74379754
-3.937201 -5.0873923 0.73470545
2.5483775 -5.0109205 0.743779
-3.9587617 -5.0821447 0.73469454
2.5430217 -5.0449185 0.74379754
-3.9683869 -5.0682225 0.73469621
2.5303178 -5.0385265 0.74379253
-3.9921484 -5.0647755 0.73468274
2.5115914 -5.006423 0.74377227
-4.0269938 -5.070838 0.73465657
2.5088396 -5.0547485 0.74379927
-4.069109 -5.0848465 0.73462123
2.4894807 -5.0137529 0.743774
-4.1015987 -5.087523 0.73459846
2.4854808 -5.0592771 0.74379927
-4.1146522 -5.0752869 0.73459679
2.4707606 -5.0441818 0.74378914
-4.1473026 -5.0806417 0.73457235
2.4544261 -5.0174389 0.74377227
-4.1687231 -5.0735073 0.73456222
2.4442768 -5.0312357 0.743779
-4.1877279 -5.0661321 0.73455381
2.4375896 -5.0592589 0.7437942
-4.2399511 -5.087471 0.73739302
2.4193659 -5.0208654 0.7437706
-4.2516928 -5.0719013 0.7373935
2.4096327 -5.0374718 0.743779
-4.2970448 -5.0860968 0.7373724
2.398227 -5.0394678 0.743779
-4.3224545 -5.0844979 0.73736352
2.3813331 -5.0067077 0.7437588
-4.3356929 -5.0699601 0.73736304
2.3749442 -5.0434551 0.743779
-4.3585596 -5.0651646 0.73735607
2.3654461 -5.0569286 0.74378574
-4.4215894 -5.0929489 0.73732424
2.3464155 -5.0125604 0.7437588
-4.4503326 -5.0916214 0.73731393
2.3364813 -5.0260482 0.74284369
-4.466176 -5.0797691 0.73731154
2.3241882 -5.0250478 0.74284256
-4.4848833 -5.072073 0.73730689
2.3177938 -5.0557137 0.74285382
-4.512146 -5.0692487 0.73729753
2.3018782 -5.0314989 0.74284369
-4.5417266 -5.0681386 0.73728675
2.2900305 -5.0333061 0.74284369
-4.5811467 -5.0765524 0.73726946
2.2790909 -5.0349474 0.74284369
-4.6151142 -5.0776124 0.73725635
2.2714429 -5.0686522 0.74285603
-4.6281953 -5.0640793 0.73425972
2.2553756 -5.0384183 0.74284369
-4.6777897 -5.0798802 0.73421758
2.2481167 -5.0660877 0.74285382
-4.7196121 -5.0865088 0.73418558
2.2321 -5.041707 0.74284369
-4.7482014 -5.0846286 0.73416704
2.2175174 -5.0200553 0.74283469
-4.7647257 -5.0743337 0.73416114
2.209722 -5.0447602 0.74284369
-4.8035908 -5.0781546 0.73413247
2.1943316 -5.0231595 0.74283469
-4.850152 -5.0895195 0.73409456
2.1825862 -5.0217342 0.74283355
-4.8581429 -5.0724802 0.7340979
2.1705694 -5.0144086 0.74374533
-4.9237051 -5.0957985 0.73404062
2.1583114 -5.0159445 0.74374533
-4.9490557 -5.0896358 0.73402631
2.1518021 -5.0610185 0.7437706
-4.9680033 -5.0805473 0.73401785
2.1366401 -5.0274324 0.74375039
-5.0137815 -5.089304 0.73398167
2.1251431 -5.0317373 0.74375206
-5.0635767 -5.1007557 0.7339412
2.111968 -5.0214605 0.74374533
-5.0778632 -5.0878849 0.7339378
2.1023574 -5.034339 0.74375206
-5.1211481 -5.0931859 0.73784667
2.0900478 -5.0356979 0.74375206
-5.1232357 -5.070364 0.73785114
2.0786471 -5.0369282 0.74375206
-5.1857958 -5.0921631 0.73782682
2.0676994 -5.0380836 0.74375206
-5.2014723 -5.0770469 0.73782527
2.0565667 -5.051012 0.7437588
-5.2670779 -5.0994635 0.73779982
2.0439715 -5.0405002 0.74375206
-5.2965255 -5.0968175 0.73779124
2.0341473 -5.0532398 0.7437588
-5.3194098 -5.0864582 0.73778635
2.0217886 -5.0544229 0.7437588
-5.3645387 -5.093606 0.73777062
2.0103436 -5.0554895 0.74283922
-5.4068747 -5.0995517 0.73775601
1.9990919 -5.0535698 0.74283808
-5.4346304 -5.0921755 0.73774892
1.9839383 -5.0225563 0.74282575
-5.4603248 -5.0842476 0.73774254
1.9745824 -5.0527639 0.74283695
-5.5200348 -5.1025934 0.73771971
1.9645369 -5.0594816 0.74283922
-5.5535173 -5.0986729 0.73770994
1.951232 -5.0488024 0.74283469
-5.6027083 -5.1062822 0.73769271
1.9366366 -5.0146828 0.74282122
-5.6251707 -5.0975285 0.73271871
1.9239902 -4.9921393 0.74281222
-5.6696205 -5.1015072 0.73268127
1.9122425 -4.9930048 0.74281222
-5.7068319 -5.1004028 0.73265225
1.9029436 -5.0289111 0.74282575
-5.7415285 -5.0994539 0.73262507
1.8920152 -5.0296621 0.74282575
-5.7719536 -5.0924931 0.7326045
1.8785785 -5.0129356 0.74281895
-5.8153248 -5.0959516 0.73256797
1.8683307 -5.0312033 0.74282575
-5.8354268 -5.0849371 0.73255765
1.8573967 -5.0318747 0.74282575
-5.8937082 -5.095746 0.73250526
1.8450947 -5.0325994 0.74236929
-5.9413338 -5.1013389 0.73246408
1.8337021 -5.0332427 0.74236929
-5.98036 -5.1021538 0.73243219
1.8227638 -5.0338345 0.74236929
-6.0117841 -5.09484 0.73241067
1.8104563 -5.0344701 0.74236929
-6.0579314 -5.098835 0.73237133
1.7990596 -5.0350299 0.74236929
-6.0962577 -5.0986547 0.73234046
1.7893193 -5.061882 0.74237686
-6.1376686 -5.0971637 0.73317695
1.7770655 -5.0653572 0.7423777
-6.1827908 -5.0988259 0.73314321
1.7639487 -5.0365834 0.74236929
-6.2336645 -5.1059217 0.73310274
1.7530034 -5.0370145 0.74236929
-6.278079 -5.1066704 0.7330699
1.7407255 -5.0257416 0.7423659
-6.3233757 -5.1077404 0.73303622
1.7292843 -5.0378623 0.74236929
-6.3661318 -5.1091075 0.73300415
1.7183354 -5.0382137 0.74236929
-6.4003339 -5.1019058 0.73298228
1.7053528 -5.015151 0.74236256
-6.4386292 -5.0991297 0.73295528
1.6946104 -5.0388889 0.74236929
-6.4915323 -5.1060667 0.7329132
1.6843522 -5.068449 0.7423777
-6.5333533 -5.1029129 0.73288369
1.671339 -5.0394359 0.74236929
-6.5650644 -5.0956125 0.73286349
1.6599302 -5.0396628 0.74236929
-6.6181412 -5.1019535 0.73282135
1.6491215 -5.0486422 0.7423718
-6.6894951 -5.1156626 0.73276234
1.6366556 -5.04004 0.74236929
-6.7246904 -5.1098223 0.73273873
1.6253455 -5.0489721 0.7423718
-6.7628069 -5.1066074 0.72994906
1.6139729 -5.0051408 0.74235916
-6.8217649 -5.1121459 0.72988725
1.6019688 -5.040391 0.74236929
-6.8655033 -5.1107082 0.72984457
1.5905581 -5.040452 0.74236929
-6.9177475 -5.1139593 0.72979063
1.5791473 -5.0404849 0.74236929
-6.951025 -5.1050181 0.72976255
1.5673082 -5.0053339 0.74235916
-6.9978924 -5.1036673 0.72971648
1.5555289 -5.0053096 0.74235916
-7.0404758 -5.1018333 0.72967494
1.5446553 -5.0052614 0.74235916
-7.0947037 -5.1030965 0.72961986
1.5321357 -5.0403328 0.74145645
-7.142951 -5.1029143 0.72957152
1.520725 -5.040226 0.74145645
-7.1924887 -5.1043139 0.72952098
1.5097716 -5.0400972 0.74145645
-7.2366371 -5.0992098 0.72947943
1.4974492 -5.0399227 0.74145645
-7.3021374 -5.1078281 0.72940862
1.4854121 -5.074883 0.74145979
-7.3604097 -5.1132669 0.72934681
1.475265 -5.0307369 0.74145555
-7.3849707 -5.0967722 0.72933114
1.4627666 -5.0392599 0.74145645
-7.4661436 -5.1129971 0.72728014
1.4515805 -5.0302005 0.74145555
-7.5263338 -5.1186371 0.7272054
1.4396851 -5.0650558 0.74145895
-7.5828295 -5.1186457 0.72713858
1.4280903 -5.0383444 0.74145645
-7.6281013 -5.1146555 0.72708744
1.4170651 -5.0262752 0.74145532
-7.6608505 -5.1049752 0.72705466
1.4057372 -5.0376196 0.74145645
-7.7512054 -5.1220102 0.7269367
1.3940775 -5.0196099 0.74145472
-7.783226 -5.109252 0.72690654
1.3824961 -5.0132995 0.74145418
-7.8264494 -5.1044502 0.72685808
1.3702478 -5.0450511 0.74145728
-7.9027462 -5.1142263 0.72676104
1.3579781 -5.0533156 0.74145812
-7.9591589 -5.1134129 0.72669423
1.3456657 -5.0615492 0.74145895
-8.0199156 -5.116837 0.72661948
1.334374 -5.0668702 0.74145949
-8.0986919 -5.1256208 0.72651988
1.3218305 -5.0691671 0.74145979
-8.1461086 -5.1205297 0.72646612
1.3122633 -5.0334511 0.74145645
-8.1992025 -5.1192284 0.72640324
1.2999976 -5.0562434 0.74145865
-8.2791071 -5.1275034 0.73155147
1.2890227 -5.0321293 0.74145645
-8.3511724 -5.1338282 0.73149335
1.277633 -5.0314393 0.74145645
-8.3816595 -5.1205578 0.73147476
1.2652018 -5.054141 0.74145865
-8.4240627 -5.1094518 0.73144615
1.2561569 -5.0036387 0.74145389
-8.5059671 -5.1196771 0.73137873
1.241807 -5.0467119 0.74145812
-8.5831108 -5.1283855 0.73131555
1.2329252 -5.0167184 0.74145532
-8.6476593 -5.1270847 0.73126578
1.2197998 -5.0275145 0.74145645
-8.7206192 -5.130662 0.73120767
1.2075191 -5.0324659 0.741
-8.7680054 -5.1241908 0.7311731
1.1952031 -5.0491409 0.741
-8.8490505 -5.1309137 0.73110741
1.1833155 -5.0481887 0.741
-8.9071865 -5.1265197 0.7310636
1.1714303 -5.0472078 0.741
-8.9786034 -5.1304555 0.73100626
1.162473 -5.0229244 0.741
-9.0492563 -5.1312428 0.73095065
1.1485815 -5.0452371 0.741
-9.1244154 -5.1337423 0.72976762
1.1372356 -5.0383339 0.741
-9.1916065 -5.134716 0.72970861
1.1246512 -5.0548248 0.741
-9.2478046 -5.1266699 0.72966272
1.1134131 -5.0419879 0.741
-9.3369493 -5.1356525 0.7295813
1.102 -5.0408773 0.741
-9.3945208 -5.1313481 0.7295326
1.0878124 -5.0718493 0.741
-9.4937038 -5.1414604 0.72944176
1.0787261 -5.0385265 0.741
-9.5473881 -5.1335382 0.72939777
1.0685551 -5.0256796 0.741
-9.6149435 -5.13272 0.72933877
1.0563757 -5.0361614 0.741
-9.7045536 -5.1373482 0.72925824
1.0453556 -5.0231657 0.741
-9.7655334 -5.131711 0.7292068
1.0287127 -5.068469 0.741
-9.8673649 -5.1446157 0.72911221
1.0230777 -5.0206437 0.741
-9.9267025 -5.1350117 0.72906351
1.0083997 -5.0395751 0.741
-10.017975 -5.1399388 0.72898114
0.99372721 -5.0614262 0.741
-10.100304 -5.1432648 0.72890717
0.9837997 -5.051362 0.741
-10.181839 -5.1432381 0.7239691
0.97190738 -5.0498829 0.741
-10.262548 -5.1424627 0.7238695
0.95555019 -5.0832458 0.741
-10.338778 -5.1421013 0.72377509
0.9490478 -5.0469561 0.741
-10.423702 -5.1409402 0.72367024
0.94134879 -5.0104809 0.741
-10.503241 -5.1398401 0.72357196
0.92371488 -5.055408 0.741
-10.607731 -5.1497793 0.72343695
0.9119277 -5.0597105 0.741
-10.694703 -5.148118 0.72332942
0.89833331 -5.0666919 0.741
-10.767198 -5.1429892 0.72324163
0.89557004 -5.0041618 0.741
-10.87015 -5.1509209 0.72310925
0.87964463 -5.0373855 0.741
-10.951881 -5.1459017 0.72300965
0.86904716 -5.0239868 0.741
-11.014534 -5.1358128 0.72293621
0.85070491 -5.0686445 0.741
-11.109533 -5.1393385 0.72281563
0.84145761 -5.0553899 0.741
-11.217873 -5.1433377 0.72267801
0.82909775 -5.0534849 0.741
-11.323109 -5.1469984 0.72254431
0.81720042 -5.0516205 0.741
-11.411508 -5.1480169 0.72243285
0.8066802 -5.0499468 0.741
-11.523792 -5.1519079 0.72228998
0.79009509 -5.0739765 0.741
-11.627474 -5.1534457 0.72215891
0.78436422 -5.0344391 0.741
-11.726642 -5.1556826 0.72203308
0.77148628 -5.0441732 0.741
-11.815379 -5.1492753 0.7219243
0.75324726 -5.0767441 0.741
-11.946364 -5.1607242 0.7217539
0.74774384 -5.0401282 0.741
-12.015475 -5.1506281 0.72167134
0.73274469 -5.061306 0.741
-12.146686 -5.158083 0.72150224
0.72037005 -5.0591197 0.73913831
-12.266044 -5.163609 0.72134888
0.70943761 -5.054184 0.73913944
-12.339915 -5.1539817 0.72125971
0.69634628 -5.0637164 0.73913497
-12.456694 -5.1545653 0.7211116
0.68556857 -5.0527945 0.73913831
-12.583696 -5.161129 0.72094774
0.676296 -5.0391412 0.73914284
-12.697416 -5.1640153 0.72080225
0.66315556 -5.0485816 0.73913831
-12.811712 -5.1619635 0.72065806
0.65081429 -5.0462155 0.73913831
-12.942719 -5.1680918 0.72048903
0.6371429 -5.0554972 0.73913383
-13.042372 -5.1630187 0.72036445
0.62171507 -5.0733619 0.73912597
-13.18053 -5.1687775 0.72018623
0.60919261 -5.073853 0.73912483
-13.300264 -5.1677346 0.72003418
0.59957933 -5.0599561 0.7391293
-13.400591 -5.1628904 0.71990836
0.58917284 -5.0548387 0.73913044
-13.539976 -5.167141 0.71972877
0.57667542 -5.0552444 0.7391293
-13.646027 -5.1599102 0.71959639
0.56296134 -5.0613508 0.73912597
-13.774441 -5.162569 0.71943122
0.5519619 -5.0590181 0.74006295
-13.934139 -5.169693 0.7192241
0.54144883 -5.0477738 0.74006468
-14.043669 -5.1634536 0.71908647
0.52502131 -5.0681891 0.74006015
-14.173294 -5.1646352 0.71891999
0.51211047 -5.0743518 0.74005848
-14.316542 -5.1644492 0.71873647
0.49586725 -5.0887494 0.74005514
-14.472955 -5.1709242 0.71853334
0.49080515 -5.0575829 0.74006075
-14.602861 -5.1702533 0.71836686
0.47785616 -5.063653 0.74005902
-14.765116 -5.1736498 0.72142041
0.4667964 -5.0550981 0.74006015
-14.899418 -5.1712718 0.72127324
0.45001888 -5.0752597 0.74005568
-15.053925 -5.1759796 0.72110134
0.44437504 -5.0498576 0.74006015
-15.201525 -5.172709 0.72093952
0.42658448 -5.0697207 0.74005568
-15.35437 -5.1719646 0.72077101
0.41189599 -5.0782442 0.74005342
-15.529829 -5.1805267 0.72057438
0.41752577 -5.0072565 0.74006689
-15.645334 -5.1675448 0.72045082
0.40013242 -5.0271211 0.74006242
-15.835103 -5.1750531 0.72023845
0.37979817 -5.0582995 0.73911136
-15.96202 -5.1675777 0.72010028
0.36880612 -5.0555453 0.73911136
-16.175079 -5.1780319 0.71986097
0.35644746 -5.0524173 0.73911136
-16.331818 -5.1755424 0.71968794
0.34501147 -5.0494924 0.73911136
-16.481577 -5.1722555 0.71952277
0.32888865 -5.0665088 0.7391035
-16.688448 -5.1781168 0.71929133
0.31575871 -5.0661106 0.73910236
-16.845467 -5.1733394 0.7136479
0.30428958 -5.0630889 0.73910236
-17.040798 -5.1798797 0.71337402
0.29631305 -5.04884 0.73910683
-17.245232 -5.1821342 0.71308893
0.28091669 -5.0568376 0.73910236
-17.394981 -5.172996 0.71288389
0.27409458 -5.0367718 0.7391091
-17.572695 -5.1723032 0.71263671
0.25848913 -5.0507236 0.73910236
-17.827625 -5.1845598 0.71227717
0.24614358 -5.0473099 0.73910236
-17.988523 -5.1737757 0.7120567
0.2247653 -5.0778413 0.73908889
-18.17934 -5.1756887 0.71178985
0.21737957 -5.0635843 0.73909336
-18.429981 -5.1834354 0.71143734
0.20500064 -5.0600648 0.73909336
-18.643322 -5.182816 0.71113962
-22.648527 -6.1614819 0.70521027
0.19065285 -5.0650897 0.73909003
-18.836851 -5.180479 0.71086997
-22.644022 -6.1014776 0.70523691
0.17800832 -5.0675268 0.73908776
-19.10265 -5.1903777 0.710495
-58.753853 -14.6779 0.65186268
0.16360164 -5.0724721 0.73908442
-19.271692 -5.1760435 0.71026325
-59.20871 -14.626766 0.65124333
0.1558218 -5.054904 0.73909003
-19.533981 -5.1869669 0.70989251
-59.75602 -14.607454 0.65048355
0.14315987 -5.0572491 0.73908776
-19.799747 -5.1910133 0.70532149
-60.424683 -14.595003 0.63735783
0.12825894 -5.0619516 0.73908442
-20.2218 -5.233819 0.7046355
-25.623043 -6.4704847 0.69560444
0.12703681 -5.0248461 0.73909789
-20.264631 -5.1908836 0.70458293
-61.511421 -14.534885 0.6356532
0.10580921 -5.0551205 0.73908442
-20.531782 -5.1914082 0.70415795
-62.112343 -14.497927 0.63471091
0.096919298 -5.0401173 0.73908889
-20.855343 -5.2075243 0.70363748
-62.707901 -14.469643 0.63377345
0.075906754 -5.0673308 0.73907655
-21.073694 -5.2013235 0.70329213
-63.278484 -14.439573 0.63287574
0.071933031 -5.041522 0.7390855
-21.316463 -5.1925306 0.70290852
-25.696716 -6.1394539 0.69560444
0.05162859 -5.0627556 0.73907542
-25.895061 -6.1135702 0.69529724
-64.563164 -14.375872 0.63085115
0.031232357 -5.0869989 0.73664439
-26.505638 -6.1766214 0.69430244
-65.1745 -14.346094 0.62988663
0.032776594 -5.0444117 0.73667979
-26.890842 -6.1811981 0.69368649
-65.697342 -14.274874 0.62907648
0.0095601082 -5.0738411 0.73664945
-27.22691 -6.1765366 0.69315171
-66.559448 -14.277664 0.62769967
-0.0051281452 -5.0782833 0.73664188
-27.611183 -6.1887312 0.69253415
-67.217949 -14.255342 0.62665558
-0.013864756 -5.0692339 0.73664689
-28.107067 -6.2098808 0.69173509
-67.927025 -14.212612 0.62553662
-0.029040337 -5.073452 0.73663932
-28.554794 -6.2218847 0.69101566
-68.612968 -14.168655 0.62445432
-0.044722795 -5.0805545 0.73662925
-28.717932 -6.1819487 0.68485767
-0.048237562 -5.0546284 0.73664945
-28.94067 -6.1467791 0.68447167
-34.161304 -7.1564646 0.67478549
-0.067717552 -5.0727539 0.73662925
-29.514507 -6.1775274 0.68343455
-0.068203211 -5.0354171 0.73665953
-29.528055 -6.1060867 0.68343455
-0.094519615 -5.0759134 0.73661911
-30.289127 -6.164258 0.68205231
-31.749496 -6.4355278 0.67934662
-0.10305619 -5.0605254 0.73662925
-30.764271 -6.1724863 0.68119848
-0.11451006 -5.056499 0.73662925
-31.375523 -6.206296 0.68009198
-0.12549663 -5.0526075 0.73662925
-31.748463 -6.1848507 0.67943025
-0.14575362 -5.0702648 0.73856056
-31.902046 -6.1295853 0.67917228
-75.063652 -13.71549 0.59934384
-0.15723085 -5.0661359 0.73856056
-32.698715 -6.1884527 0.67772424
-75.100204 -13.540226 0.59933317
-0.15622354 -5.0291076 0.73857743
-33.311752 -6.2018929 0.67661953
-75.052505 -13.327852 0.59948432
-0.18061352 -5.0576286 0.73856056
-33.715935 -6.1839943 0.67589909
-66.847839 -11.75856 0.61469758
-0.1880002 -5.0424232 0.73856616
-34.131222 -6.1695299 0.67515731
-0.21121049 -5.0713134 0.73854929
-34.584946 -6.1487885 0.67434788
-0.22052264 -5.058454 0.73855352
-35.120193 -6.1424084 0.67338729
-75.054245 -12.558681 0.59971029
-0.23553514 -5.0621958 0.73854929
-35.871521 -6.1748838 0.6720264
-75.018692 -12.372364 0.59982765
-0.25799203 -5.0881467 0.73853385
-36.578587 -6.1857519 0.67075098
-74.991913 -12.165167 0.5999344
-0.25470257 -5.0423622 0.73855495
-37.297363 -6.2023621 0.66945231
-0.27877545 -5.0707688 0.73853809
-37.927017 -6.2059479 0.66831738
-75.003563 -11.799011 0.60001445
-0.28767157 -5.0610385 0.73854089
-38.695782 -6.2154665 0.66692984
-0.3021791 -5.0616665 0.73853809
-39.420223 -6.2225666 0.66562235
-0.32223654 -5.0789652 0.73852682
-40.193649 -6.2372932 0.66422415
-0.33327365 -5.074594 0.73605371
-40.865608 -6.2217083 0.66301626
-0.34567904 -5.0696487 0.73605371
-41.67979 -6.2307396 0.6615451
-0.35715437 -5.0650411 0.73605371
-42.437553 -6.2324924 0.66017711
-82.966843 -11.743626 0.58566934
-0.36816001 -5.0605917 0.73605371
-43.205009 -6.2189598 0.65879488
-0.37609625 -5.0447078 0.73606491
-44.003502 -6.2144012 0.657354
-0.4008882 -5.0725384 0.73603123
-44.833618 -6.2145939 0.65585434
-0.40294337 -5.0463343 0.73605371
-0.43783498 -5.0952854 0.7359975
-0.43621588 -5.0578508 0.73603123
-0.44720483 -5.0532188 0.73603123
-0.4728694 -5.0805202 0.7359975
-0.48021245 -5.0646391 0.73600876
-0.49353814 -5.0652866 0.73600316
-53.069958 -6.3177605 0.65146786
-0.51759386 -5.0867958 0.73597503
-53.240639 -6.2038612 0.65121162
-54.43964 -6.334116 0.64924592
-0.52206659 -5.0656724 0.73849595
-55.782902 -6.3466434 0.64706695
-104.19462 -11.493118 0.56771821
-0.5460546 -5.0903397 0.73848051
-56.119026 -6.2315083 0.64654171
-104.04753 -11.201183 0.56800628
-0.56206155 -5.0928793 0.73847628
-58.708878 -6.3541622 0.64232218
-0.57359171 -5.0877523 0.73847628
-59.199921 -6.2627563 0.64154071
-71.195045 -7.4495888 0.6218949
-0.57985067 -5.072113 0.73848188
-61.878712 -6.3621025 0.63717955
-71.23967 -7.2638416 0.62185192
-0.59948826 -5.0825481 0.73847347
-62.280136 -6.2464561 0.63654608
-63.768707 -6.3862495 0.63410926
-0.61705828 -5.0906653 0.73846644
-61.805565 -6.0549068 0.63734508
-65.19664 -6.3654995 0.63179499
-0.62934113 -5.0882816 0.73846507
-63.577103 -6.0472622 0.63447058
-67.454361 -6.3922634 0.62812626
-0.6368773 -5.0719266 0.73847067
-63.517395 -5.8785629 0.63459152
-69.913437 -6.4316273 0.62412798
-0.65374625 -5.0770388 0.73846507
-65.27832 -5.8824425 0.63173133
-71.327194 -6.392046 0.62183762
-0.64450431 -5.0296402 0.73848754
-65.262497 -5.7070351 0.63178068
-70.320862 -6.1200047 0.62350887
-0.66675484 -5.045104 0.73847628
-67.207336 -5.6933708 0.62862283
-70.374199 -5.9439697 0.62344521
-0.69364965 -5.0712957 0.73845941
-70.451363 -5.7834473 0.62334013
-72.061844 -5.9071617 0.62070751
-0.70466816 -5.0660701 0.73642701
-72.153618 -5.7294979 0.6205802
-0.71659207 -5.0603824 0.73642701
-75.590828 -5.7916584 0.61498553
-0.7285018 -5.0546656 0.73642701
-0.75480962 -5.0810003 0.73639667
-0.7620939 -5.0644302 0.73640674
-0.76839399 -5.0483036 0.73641688
-81.6483 -5.4255981 0.6051746
-0.79491746 -5.0744348 0.73638654
-0.80732083 -5.068294 0.73638654
-86.080872 -5.2628708 0.59797871
-0.81879163 -5.0625801 0.73638654
-88.311501 -5.1830292 0.59435612
-0.82452798 -5.046597 0.73639667
-0.83685946 -5.04038 0.73639667
-92.257797 -4.9306908 0.58795446
-0.85623443 -5.0502615 0.73638147
-0.89122736 -5.0916085 0.73633599
-0.88757908 -5.0539637 0.73636633
-0.91025507 -5.0686302 0.73738027
-0.93209791 -5.083693 0.73736459
-104.01432 -4.2293739 0.56886101
-0.95902812 -5.1059809 0.73734295
-0.9505496 -5.0607886 0.7373724
-0.96703482 -5.0653267 0.73736459
-0.97895586 -5.0589848 0.73736459
-0.99640346 -5.0629382 0.73735672
-112.41225 -3.1678886 0.55523485
-1.021318 -5.0827999 0.73733705
-1.0365387 -5.0812221 0.73733312
-1.0354005 -5.0518179 0.73735082
-1.046374 -5.0458078 0.73735082
-1.0842068 -5.0851727 0.73731542
-1.0985632 -5.0839162 0.73731148
-1.1053236 -5.0700879 0.73731738
-1.1177148 -5.0631437 0.73626518
-1.1450304 -5.0847397 0.73623741
-1.1657296 -5.095458 0.73622054
-1.1757628 -5.0841188 0.73622477
-1.1916248 -5.0840292 0.73621804
-1.1987617 -5.0708957 0.73622477
-1.2278767 -5.0935245 0.73619527
-1.2339517 -5.0764165 0.7362054
-1.2375575 -5.0573215 0.73621804
-1.2663194 -5.0777745 0.7361902
-1.2808058 -5.0759959 0.73618513
-1.2918342 -5.0694208 0.73618513
-1.3042232 -5.0619941 0.73618513
-1.3414419 -5.0977092 0.73452288
-1.3525202 -5.0909948 0.73452288
-1.0930279 -5.0400491 0.71746087
-1.1049495 -5.0335035 0.71746087
-1.1201966 -5.0351238 0.71742296
-1.1492118 -5.0592241 0.71727133
-1.1540216 -5.0397592 0.71733451
-1.1722145 -5.0463405 0.71727133
-1.1860547 -5.0418863 0.71725869
-1.2115431 -5.0599756 0.7171365
-1.2026907 -5.0189199 0.71730924
-1.22233 -5.0245299 0.71724606
-1.2381636 -5.0255327 0.71773684
-1.253559 -5.026752 0.71769971
4.3107719 -5.0341482 0.723113
-1.2896051 -5.059979 0.717502
4.2868061 -5.0208864 0.72318941
-1.3006201 -5.0523734 0.71750611
4.275435 -5.0273824 0.72318941
-1.3111552 -5.0450144 0.71751022
4.264504 -5.0335922 0.72318941
-1.3295459 -5.0477185 0.71746081
4.2521892 -5.0405488 0.72318941
-1.3419878 -5.0414209 0.7174567
4.2403131 -5.0472169 0.72318941
-1.3650894 -5.054883 0.71735781
4.2193561 -5.0354242 0.72169065
-1.3664209 -5.0301189 0.7174443
4.1989794 -5.0266318 0.721753
-1.3905108 -5.0429072 0.71734548
4.1744261 -5.0100679 0.72184652
-1.4091716 -5.0486736 0.71728367
4.1719742 -5.0314655 0.72178417
-1.4256699 -5.0477095 0.7172507
4.1596656 -5.0381823 0.72178417
-1.4314948 -5.0314856 0.717296
4.1496458 -5.0469499 0.7217738
-1.4579612 -5.0495377 0.71717244
4.1150761 -5.0090089 0.72195047
-1.4734733 -5.0467615 0.71714771
4.0973015 -5.0052443 0.72199202
-1.4911941 -5.0494742 0.7170983
4.0914679 -5.0216331 0.72195047
-1.5016974 -5.0416913 0.71710241
4.0969777 -5.0585012 0.72182572
-1.5125076 -5.0313644 0.71711475
4.080513 -5.0572429 0.72185695
-1.5439439 -5.055326 0.71695822
4.0582061 -5.0424681 0.72194004
-1.5655448 -5.0646768 0.71687579
4.0296884 -5.0143785 0.72207516
-1.574275 -5.0509148 0.71690464
4.025485 -5.0363474 0.72201282
-1.5926813 -5.0541124 0.71685112
4.0073938 -5.0291882 0.72360003
-1.5902892 -5.0253658 0.71695822
3.9933407 -5.0297937 0.72361916
-1.6128963 -5.0339046 0.71687579
3.9934123 -5.0593367 0.72353321
-1.636641 -5.0439897 0.71678519
3.9656761 -5.0339618 0.72364783
-1.661696 -5.0578523 0.71667808
3.9547305 -5.0394592 0.72364783
-1.6757462 -5.0520191 0.71666574
3.9476223 -5.0561051 0.72360963
-1.6856042 -5.0418959 0.71667808
3.9049959 -4.9987621 0.72383881
-1.6867757 -5.0199051 0.71344572
3.8941321 -5.0041199 0.72383881
-1.731438 -5.0592566 0.71316957
3.8870378 -5.020647 0.7238006
-1.7511957 -5.0635366 0.7130993
3.8756685 -5.0261846 0.7238006
-1.7732906 -5.072094 0.71300572
3.8647408 -5.0314746 0.7238006
-1.7851973 -5.0627313 0.71301037
3.8461003 -5.024188 0.72384834
-1.7917097 -5.0475521 0.71305251
3.8460646 -5.0534296 0.72376239
-1.8127693 -5.0543327 0.71296823
3.8150036 -5.0162854 0.7224077
-1.8229444 -5.0424709 0.71298695
3.8039827 -5.0247288 0.72239733
-1.8501396 -5.0567951 0.71285588
3.7963266 -5.0380282 0.72236615
-1.8645623 -5.0537968 0.7128278
3.7853718 -5.0431356 0.72236615
-1.8718846 -5.037837 0.71286994
3.7632089 -5.0275726 0.7224493
-1.8855009 -5.031734 0.71285588
3.7367105 -5.0010681 0.722574
-1.9135675 -5.0476704 0.71271545
3.7404246 -5.0380268 0.7224493
-1.932364 -5.0485845 0.71322608
3.732183 -5.0514259 0.72241813
-1.9649456 -5.0684042 0.71306092
3.7106662 -5.0354242 0.72250128
-1.967386 -5.0485201 0.71312976
3.6925418 -5.0242877 0.72256362
-1.9745895 -5.0323691 0.71317106
3.680253 -5.0297632 0.72256362
-2.010355 -5.0569878 0.71297836
3.6724095 -5.0428467 0.72253245
-2.0091968 -5.032351 0.71307468
3.6520338 -5.0262041 0.7226156
-2.0489526 -5.0600042 0.71285909
3.6409101 -5.0342607 0.72260517
-2.0663092 -5.0592403 0.7128132
3.6190429 -5.0150108 0.72368795
-2.0750093 -5.0478373 0.71283156
3.6035149 -5.0089445 0.72372729
-2.0844626 -5.0346012 0.7128545
3.5958648 -5.0249681 0.72368795
-2.1171687 -5.0539317 0.71268934
3.584486 -5.029808 0.72368795
-2.1436031 -5.065721 0.71257007
3.5599051 -5.0020275 0.72380596
-2.1619887 -5.0639515 0.71252418
3.5521948 -5.017972 0.72376662
-2.1793327 -5.0617023 0.71248287
3.5493646 -5.0445414 0.72368795
-2.2017503 -5.0678349 0.71356326
3.5406303 -5.0544972 0.72366834
-2.2167373 -5.0623775 0.71354121
3.5309429 -5.0648146 0.72364867
-2.2269053 -5.0507231 0.71355444
3.5101798 -5.0479746 0.72372729
-2.256041 -5.0651035 0.71342242
3.4860349 -5.0198269 0.72384524
-2.2662046 -5.0533595 0.71343565
3.4774845 -5.0327425 0.7238158
-2.2836227 -5.0507712 0.71339601
3.4591279 -5.0211492 0.72387475
-2.3238912 -5.0786252 0.71318477
3.4503686 -5.0309296 0.72385508
-2.3253655 -5.0549321 0.71326399
3.4402037 -5.0412326 0.72383541
-2.3429914 -5.0532866 0.71322
3.4277225 -5.0429692 0.72384524
-2.371851 -5.0663733 0.71309239
3.3956037 -4.9925871 0.72404188
-2.3676434 -5.0358214 0.71321118
3.3949552 -5.0273771 0.72393376
-2.4087822 -5.0627465 0.713
3.3971424 -5.0673199 0.72380596
-2.4285197 -5.0642376 0.71293837
3.3715935 -5.0331535 0.72394359
-2.445313 -5.0592508 0.71290755
3.3613439 -5.0432825 0.72392392
-2.4686689 -5.063982 0.71102548
3.354018 -5.0585394 0.72388458
-2.4909894 -5.0682716 0.71094126
3.3206267 -5.0021906 0.72410089
-2.5034373 -5.0578542 0.71094126
3.3094068 -5.0094538 0.72409105
-2.5349147 -5.0709352 0.71079612
3.3106608 -5.0495529 0.72396326
-2.5497744 -5.0660467 0.71076804
3.2877116 -5.0204873 0.72408122
-2.5687208 -5.0640483 0.71071655
3.283814 -5.0468082 0.72400254
-2.5902219 -5.0649538 0.71064633
3.2640562 -5.028986 0.72408122
-2.6012802 -5.0554671 0.71064633
3.2413929 -4.9997206 0.72227907
-2.6341298 -5.0684075 0.71049654
3.2291694 -5.0040283 0.72227907
-2.643095 -5.0554705 0.71051526
3.2294042 -5.0411892 0.72214764
-2.6676145 -5.0613155 0.71041691
3.2069569 -5.0117655 0.72227907
-2.6948552 -5.067327 0.71030927
3.1985025 -5.02707 0.72223526
-2.7070251 -5.0579267 0.71030456
3.1871195 -5.0309572 0.72223526
-2.7355466 -5.0679116 0.7101782
3.1686864 -5.0124564 0.72232288
-2.7499428 -5.059052 0.71078086
3.1601496 -5.027689 0.72227907
-2.7764206 -5.0655293 0.71067536
3.1487648 -5.0314846 0.72227907
-2.7933545 -5.0621519 0.71063405
3.1304932 -5.0128412 0.72236675
-2.8070946 -5.0524015 0.71062487
3.1218739 -5.0280023 0.72232288
-2.8415537 -5.0673089 0.7104643
3.1104889 -5.0317059 0.72232288
-2.8497872 -5.0532169 0.71048725
3.0883403 -5.0019107 0.72245437
-2.8868103 -5.0696483 0.7103129
3.0765648 -5.0056782 0.72245437
-2.9027696 -5.0629406 0.71028537
3.0780134 -5.0513196 0.72181028
-2.9025469 -5.0405512 0.71036339
3.05652 -5.0212259 0.72194511
-2.9435227 -5.059814 0.7101661
3.037292 -5.0026717 0.72203499
-2.9516938 -5.0455184 0.71018904
3.0337248 -5.031373 0.7219339
-2.9927893 -5.067235 0.70998257
3.0227876 -5.0347257 0.7219339
-3.0172989 -5.0683017 0.70990002
3.0002956 -5.004817 0.72206873
-3.0462971 -5.0758181 0.70978075
2.9906492 -5.0138416 0.72204626
-3.0546846 -5.0624547 0.70979911
2.9780827 -5.0114794 0.72206873
-3.0887318 -5.0731459 0.7096523
2.9691405 -5.0263467 0.72202379
-3.098237 -5.0599585 0.70966601
2.9479074 -4.9959364 0.72215861
-3.1276102 -5.0682588 0.70954216
2.9370522 -4.9990921 0.72215861
-3.1557097 -5.0723004 0.70943666
2.9248312 -5.0026121 0.72215861
-3.1576931 -5.0512824 0.70950091
2.9183097 -5.0227528 0.7220912
-3.1890116 -5.0602531 0.70936787
2.914875 -5.0541687 0.72197884
-3.2064624 -5.0540457 0.70933115
2.8982494 -5.0405712 0.72204626
-3.2431598 -5.0672021 0.70916599
2.8817 -5.0269203 0.72211367
-3.2576671 -5.0596738 0.70914304
2.8707733 -5.0299239 0.72211367
-3.2965698 -5.0746546 0.70896411
2.8612266 -5.0416317 0.72207993
-3.3224201 -5.0763869 0.70887238
2.8470759 -5.0363445 0.72211367
-3.3300328 -5.0617814 0.70889533
2.8301072 -5.0166168 0.72220355
-3.3661168 -5.0724864 0.70808095
2.8238029 -5.0425262 0.72211367
-3.3867183 -5.0696306 0.70802009
2.8123839 -5.0455151 0.72211367
-3.4096689 -5.0699048 0.70794052
2.78824 -4.9972973 0.72231591
-3.4263229 -5.0611897 0.70791245
2.7745752 -4.9947548 0.72233838
-3.4645221 -5.0750837 0.70773453
2.7632704 -4.9976254 0.72233838
-3.4685616 -5.056818 0.70778137
2.7609463 -5.034461 0.72220355
-3.5077951 -5.06952 0.70760345
2.7528577 -5.0545878 0.72213614
-3.5108335 -5.0493588 0.70765966
2.7337422 -5.0261059 0.7222597
-3.5452471 -5.0599189 0.70750517
2.7262704 -5.043004 0.72220355
-3.5754366 -5.0635185 0.7073881
2.7146196 -5.0488281 0.72219229
-3.5973811 -5.0601377 0.7073226
2.6966438 -5.0260077 0.72229344
-3.6419759 -5.0796552 0.70710254
2.6857195 -5.028585 0.72229344
-3.6554191 -5.0680847 0.70709318
2.6659307 -4.9971027 0.72242826
-3.6860483 -5.0723848 0.70697147
2.6620312 -5.0340829 0.72229344
-3.7021513 -5.0650053 0.70693868
2.6510887 -5.036581 0.72229344
-3.7282743 -5.0639811 0.70684975
2.6387715 -5.0393605 0.72229344
-3.7455633 -5.056632 0.70681232
2.6292639 -5.0504861 0.7222597
-3.7963905 -5.0805631 0.70655483
2.6182835 -5.0529084 0.7222597
-3.8103161 -5.0680757 0.70654547
2.5991001 -5.0241079 0.72238332
-3.8232923 -5.0565734 0.70653611
2.5877256 -5.0265579 0.72238332
-3.8700118 -5.0761318 0.70630676
2.5768008 -5.0288849 0.72238332
-3.8926945 -5.0712276 0.70624119
2.5716982 -5.0658846 0.72224849
-3.902761 -5.0569296 0.70625055
2.5584457 -5.0596614 0.72228217
-3.9225926 -5.0521674 0.7061944
2.5427561 -5.0389576 0.72237206
-3.9739294 -5.0721459 0.70594627
2.5304332 -5.0414567 0.72237206
-4.0038652 -5.0749884 0.70582926
2.5184455 -5.0408692 0.72238332
-4.034122 -5.0788889 0.70570755
2.5029669 -5.0200391 0.7224732
-4.0687709 -5.0836182 0.70556706
2.4957123 -5.0483203 0.72237206
-4.0889311 -5.0766439 0.70267689
2.4898787 -5.0822625 0.72224849
-4.1200552 -5.0808406 0.70254034
2.4722986 -5.049819 0.72238332
-4.1357889 -5.0699129 0.70251507
2.4625523 -5.0635715 0.72233838
-4.1768494 -5.0803828 0.70231789
2.4442706 -5.0312018 0.7224732
-4.1916733 -5.0703912 0.70229262
2.434381 -5.0389633 0.72245073
-4.2258301 -5.0737586 0.70214599
2.4220586 -5.041182 0.72245073
-4.2673678 -5.08497 0.70194376
2.409627 -5.0374374 0.7224732
-4.2769651 -5.0703773 0.70195389
2.3926544 -5.0047145 0.72168839
-4.2969437 -5.061554 0.70190334
2.3863525 -5.0414772 0.72154683
-4.3635349 -5.0928307 0.70153427
2.3710382 -5.0203071 0.72164124
-4.3829694 -5.0860634 0.70147866
2.3601279 -5.0221353 0.72164124
-4.4045486 -5.0781426 0.70141798
2.3521094 -5.0501823 0.72153503
-4.4441805 -5.0866423 0.70123088
2.342072 -5.0607176 0.72149968
-4.4712548 -5.0857549 0.70112473
2.3237128 -5.0161848 0.72168839
-4.4746027 -5.0628896 0.70265996
2.3132586 -5.0296955 0.72164124
-4.5400238 -5.0905242 0.7023192
2.3014169 -5.0315309 0.72164124
-4.5641413 -5.0868697 0.70223641
2.2882888 -5.0187154 0.72170019
-4.5769348 -5.0722771 0.70223159
2.2743177 -5.0059996 0.7217592
-4.6227193 -5.0835848 0.70201737
2.2671981 -5.0396252 0.72162944
-4.6276598 -5.0646114 0.70205629
2.2558265 -5.0383148 0.72164124
-4.6894341 -5.0870237 0.70174468
2.2414579 -5.0255704 0.72261924
-4.7110405 -5.0798779 0.70168144
2.2288728 -5.0184579 0.72265291
-4.7314124 -5.0726604 0.70162296
2.2211361 -5.0431809 0.72256309
-4.7741022 -5.0795999 0.70143312
2.2041399 -5.0100026 0.72269785
-4.8112822 -5.0840163 0.70127243
2.1950903 -5.0289345 0.7226305
-4.8348284 -5.0788612 0.70119452
2.1834111 -5.0245466 0.72265291
-4.8644476 -5.0753136 0.70108747
2.1711271 -5.0261159 0.72265291
-4.9142389 -5.0886936 0.69698822
2.1626325 -5.0507994 0.72256309
-4.9394283 -5.0843792 0.6968922
2.1530681 -5.0637808 0.72251815
-4.9628839 -5.0757771 0.69681746
2.1365275 -5.0303617 0.72265291
-5.0129004 -5.0886536 0.69655597
2.1237819 -5.0200634 0.72269785
-5.0362692 -5.0816431 0.69647592
2.1137476 -5.0330176 0.72265291
-5.0813828 -5.089488 0.69625175
2.1009226 -5.0256209 0.72268665
-5.1147327 -5.0885162 0.69610769
2.088773 -5.0240149 0.72269785
-5.1574736 -5.0961366 0.69589424
2.0818987 -5.0630598 0.72162944
-5.181077 -5.0868082 0.6958195
2.0673902 -5.0439687 0.72171199
-5.2053404 -5.0798197 0.69573414
2.0553768 -5.0393157 0.7217356
-5.2418671 -5.0824628 0.69556332
2.0409455 -5.005434 0.72187716
-5.283812 -5.0858312 0.69536591
2.0332279 -5.0532904 0.72168839
-5.2945747 -5.0689297 0.69537121
2.0206842 -5.0427179 0.7217356
