# .PCD v0.7 - Point Cloud Data file format
VERSION 0.7
FIELDS x y z
SIZE 4 4 4
TYPE F F F
COUNT 1 1 1
WIDTH 1518
HEIGHT 1
VIEWPOINT 0 0 0 1 0 0 0
POINTS 1518
DATA ascii
-5.7508097 -15.294859 1.7287287
-1.2171967 -5.9644761 1.1153755
-5.6891775 -15.081918 1.7158172
-73.729095 -4.9259872 5.1266913
-1.2365363 -5.967998 1.1160672
-5.7359762 -15.083879 1.7171429
-76.821625 -4.9219437 5.306222
-1.265451 -5.9906669 1.118027
-6.1054692 -15.735284 1.7613533
-76.862328 -4.7433777 5.3079801
-1.282505 -5.9919739 1.1185457
-4.6915636 -12.81612 1.5695831
-1.306916 -6.0037289 1.1198138
-5.8844776 -15.107923 1.7223306
-79.732452 -4.5014114 5.4739013
-1.3113874 -5.9785466 1.1186033
-5.943758 -15.136986 1.7254431
-82.775085 -4.4659576 5.6505404
-1.3187467 -5.9606037 1.117854
-5.8077517 -14.785129 1.7032516
-82.749672 -4.2460175 5.6484423
-1.3494353 -5.9843431 1.1199291
-5.769752 -14.618462 1.6934526
-1.3684556 -5.9877257 1.1206207
-5.8607826 -14.710894 1.700773
-1.3838235 -5.9852757 1.120909
-6.189415 -15.264223 1.7387581
-85.620987 -3.7458 5.8140235
-189.21713 -7.8963394 11.844525
-1.3886704 -5.9585886 1.1196408
-6.2574644 -15.300275 1.7425048
-85.703148 -3.5396996 5.8183331
-1.4113261 -5.9687467 1.1207937
-6.5618553 -15.793468 1.7766857
-190.6286 -7.0488968 11.924707
-1.4298979 -5.9722824 1.1202514
-5.5874462 -13.858694 1.6456649
-190.64555 -6.5514755 11.924707
-4.6814489 -12.066058 1.5273104
-1.4642925 -5.9672804 1.1209409
-6.743268 -15.858751 1.7817152
-1.4672298 -5.9413834 1.1196769
-6.7652626 -15.813807 1.7799916
-5.7424898 -13.826803 1.6483078
-6.8423977 -15.86418 1.7847602
-194.81294 -4.7664795 12.16412
-1.5289161 -5.9878473 1.1238136
-6.876102 -15.833736 1.7841282
-1.5355008 -5.96872 1.1230092
-6.9249506 -15.838216 1.7857368
-5.8906507 -13.860447 1.6542256
-6.9905457 -15.862307 1.7888393
-1.5765542 -5.9762001 1.1245605
-7.0264564 -15.839182 1.788667
-1.5891798 -5.9680901 1.124503
-7.0641289 -15.822766 1.7888968
-6.0136642 -13.849116 1.6571558
-7.0220466 -15.653147 1.7789574
-1.6189322 -5.954814 1.1246754
-7.1587071 -15.810118 1.7909651
-1.6348597 -5.9525504 1.12502
-6.9996829 -15.445412 1.7676389
-7.0095201 -15.371478 1.7641344
-203.95325 -0.48407745 12.752061
-1.6587647 -5.9289126 1.1238792
-7.0210381 -15.307791 1.7595446
-1.6591234 -5.8994904 1.1223878
-7.0599666 -15.295588 1.7600608
-1.7180681 -5.9679084 1.1276076
-7.1178408 -15.30611 1.7622979
-1.7258121 -5.9498954 1.1269193
-7.1504011 -15.279341 1.7618964
-1.7334882 -5.9318776 1.126231
-7.1932163 -15.270177 1.7626994
-1.7663445 -5.9555569 1.1284106
-7.2270961 -15.242399 1.7622979
-1.7923921 -5.9673591 1.1297872
-7.2807431 -15.248114 1.7641907
-1.7840493 -5.9235716 1.1273208
-7.2862678 -15.179103 1.7608638
-1.8181605 -5.9474983 1.1295578
-7.3563271 -15.208837 1.7644775
-1.8357539 -5.9460421 1.1300167
-7.3976097 -15.196586 1.7651086
-7.4515753 -15.208448 1.7673457
-1.885195 -5.9651375 1.1324832
-7.4501834 -15.119236 1.762814
-1.5870836 -5.9425302 1.1057171
-5.8987398 -13.818544 1.6107056
-1.6020445 -5.9387665 1.1059364
-5.9426255 -13.824485 1.6121862
-1.6257242 -5.9468546 1.1069783
-6.0013475 -13.847753 1.614928
-1.6398336 -5.9401326 1.1070331
-6.0320091 -13.826262 1.6147087
-1.6424282 -5.9141159 1.1058267
-6.0727463 -13.825848 1.6158054
-1.6733401 -5.9347749 1.1076912
-6.1126375 -13.814625 1.6163538
-1.6951814 -5.9403529 1.1085685
-6.1661243 -13.830319 1.618602
-1.6942598 -5.9083557 1.1069783
-6.2016854 -13.820206 1.6190956
-1.7291881 -5.9366851 1.1093363
-6.2602005 -13.844044 1.6218922
-1.7253289 -5.897295 1.1073073
-6.2935648 -13.823746 1.6218374
-1.7622561 -5.9311352 1.1099943
-6.3472519 -13.844522 1.6243598
-1.7769403 -5.9226022 1.1099943
-6.3858418 -13.829989 1.6247437
4.2937708 -5.0067391 1.0514708
-1.798898 -5.928967 1.1109265
-6.4267392 -13.825286 1.6256759
4.2882481 -5.0234036 1.0521367
-1.8184166 -5.9322815 1.1103756
-6.4738688 -13.833977 1.6244085
4.254158 -4.9889812 1.0494732
-1.8360863 -5.9286351 1.1107036
-7.6762276 -15.782689 1.7527256
4.252049 -5.0137262 1.0506384
-1.8352026 -5.8962679 1.1091188
-7.7383766 -15.802466 1.7554579
4.2378235 -5.0150418 1.0503055
-1.8837507 -5.9479046 1.112999
-6.6041698 -13.828017 1.6278515
4.2111974 -4.9930944 1.0484743
-1.8838844 -5.9148374 1.1114141
-7.5148754 -15.260068 1.7229415
4.2018337 -5.005024 1.0488073
-1.8934005 -5.8999748 1.1109769
-7.912046 -15.834615 1.7620158
4.1905007 -5.0113153 1.0488073
-1.9079034 -5.894588 1.1111408
-7.9159231 -15.760392 1.7585731
4.1838388 -5.0250168 1.0493066
-1.9372618 -5.90979 1.1127256
-7.6433268 -15.225385 1.7250183
4.1687384 -5.0266328 1.0489738
-1.9569738 -5.9102693 1.1133268
-7.6545372 -15.160139 1.7222311
4.1443172 -5.0099688 1.0474755
-1.9755952 -5.9125214 1.1139826
-7.7166357 -15.187112 1.7253461
4.1338811 -5.0156317 1.0474755
-6.930212 -13.837956 1.6378523
-8.1664953 -15.823655 1.7689564
4.1271544 -5.0325537 1.0481414
-2.0286188 -5.9334931 1.1165512
-8.2130365 -15.81184 1.7697761
4.1111622 -5.0311718 1.047642
-2.0442739 -5.9294238 1.1168244
-7.2808428 -14.251141 1.6679096
4.0878654 -5.0137601 1.0461438
-2.0594716 -5.9221826 1.1162906
-7.6812205 -14.806803 1.7045678
4.0596576 -4.988986 1.0441461
-2.0835335 -5.9288549 1.1173272
-8.1733551 -15.500331 1.7520862
4.0533519 -5.0055327 1.044812
-2.0745187 -5.8860321 1.1150358
-8.1726894 -15.422112 1.7483764
4.0424714 -5.0112319 1.044812
-2.1265316 -5.934916 1.1189094
-8.1924057 -15.36661 1.7463577
4.0194349 -4.9968452 1.0434802
-2.13749 -5.9220486 1.1186365
-8.1936607 -15.289229 1.7427571
4.0081224 -5.0026999 1.0434802
-2.1563654 -5.9225955 1.1192367
-8.2585125 -15.313425 1.7458668
3.9812255 -4.9770656 1.0414824
-2.1710265 -5.9130425 1.1192367
-8.2798586 -15.261107 1.7440662
3.9743719 -4.9937124 1.0421484
-8.3468504 -15.284827 1.7472305
3.9630532 -4.9994335 1.0426557
-2.2319508 -5.9476838 1.1227282
-8.3728132 -15.249048 1.7463577
3.9587684 -5.0179853 1.0434895
-2.2272611 -5.9086919 1.1207643
-8.418067 -15.233118 1.7470124
3.9399481 -5.0110726 1.0426557
-2.2657008 -5.9369836 1.1232738
-8.475049 -15.240868 1.74914
3.9129615 -4.9853139 1.0406547
-2.2901726 -5.9452472 1.1244195
-8.5111361 -15.220243 1.7493038
3.917695 -5.0221491 1.0426557
-2.3179765 -5.9547477 1.1257288
-8.5482073 -15.191784 1.74914
3.8950875 -5.0072079 1.0413216
-2.3256075 -5.9354615 1.1250741
-8.5793924 -15.157748 1.7485399
3.8871477 -5.0208712 1.041822
-8.6350727 -15.165876 1.7506676
3.8570657 -4.9867215 1.0393206
-2.3902717 -5.9716253 1.1287839
-8.675518 -15.145326 1.7509949
3.8453255 -4.9924049 1.0393206
-2.3884716 -5.9385567 1.1272018
-8.7369423 -15.155179 1.7533953
3.833571 -4.9980593 1.0393206
-2.417079 -5.9519801 1.1287293
-8.7761965 -15.13874 1.7538865
3.8277426 -5.0138144 1.0399876
-2.4340539 -5.9461322 1.1290021
-8.8160515 -15.11701 1.7541592
3.8021622 -4.9903469 1.0381533
-8.8536272 -15.091982 1.7542138
3.7941492 -5.0038333 1.0386536
-2.48036 -5.9541998 1.1308571
-8.90905 -15.098368 1.7562869
3.79071 -5.0248327 1.0396541
-2.4939756 -5.942215 1.1307479
-8.9699535 -15.103149 1.7584691
3.7722931 -5.0173769 1.0373178
-2.525104 -5.9572005 1.1324391
-9.0151138 -15.09146 1.7593966
3.7646093 -5.0306063 1.0378156
-2.5308506 -5.9375467 1.13173
-9.0424271 -15.057642 1.7587419
3.742692 -5.0117149 1.0363224
-2.5580585 -5.9444489 1.1329302
-8.9959869 -14.912214 1.750613
3.7267966 -5.0093365 1.0358247
-2.5751083 -5.9393859 1.1332575
-9.0202513 -14.871929 1.7495766
3.7058005 -4.9931736 1.0344973
-2.6036315 -5.9512453 1.1347306
-9.0086432 -14.785259 1.7452667
3.6949496 -4.9980726 1.0344973
-2.6338735 -5.9618077 1.1362035
-9.0714951 -14.792605 1.7476671
3.6934714 -5.0275874 1.0359905
-2.6602192 -5.9691215 1.1374037
-9.0728874 -14.721542 1.7445028
3.6714003 -5.0086026 1.0344973
-2.6774044 -5.9649682 1.1377857
-9.0957413 -14.68298 1.7435207
3.6463399 -4.9813123 1.0325063
-2.6875322 -5.9477968 1.1373492
-9.160902 -14.693053 1.7461395
3.6482532 -5.0188155 1.0344973
-2.718009 -5.9591761 1.1388768
-9.1817265 -14.646027 1.7447209
3.6224234 -4.991796 1.0325063
-2.7311249 -5.9493937 1.1388768
-9.2113104 -14.616664 1.7443936
3.6162205 -5.0072422 1.03317
-2.771631 -5.9726453 1.1412773
-9.3023529 -14.660522 1.7494128
3.6039772 -5.0125203 1.03317
-2.8070712 -5.9911118 1.1432958
-9.3409662 -14.639972 1.7497947
3.592627 -5.0173788 1.03317
-2.8008056 -5.9554954 1.1414955
-9.3758068 -14.617257 1.7499583
3.5725863 -5.0004749 1.0318427
-2.8256054 -5.9574504 1.1424229
-9.4289217 -14.609913 1.7514315
3.5558202 -4.9948559 1.0311791
-2.8416362 -5.9500961 1.1426412
-9.4989014 -14.630033 1.7547047
3.5591815 -5.0346813 1.0333359
-2.8428273 -5.924583 1.1415501
-9.5420685 -14.617753 1.7556322
3.5347698 -5.0068293 1.031345
-2.893918 -5.9602699 1.1448779
-9.6269865 -14.650715 1.7599967
3.5169518 -4.9983764 1.0305154
-2.9195619 -5.9650435 1.145969
-9.6704454 -14.635479 1.7608151
3.5156136 -5.0273876 1.0320086
-2.9447064 -5.9701567 1.1470602
-9.7209301 -14.631948 1.7623971
3.4947624 -5.0074654 1.0305154
-2.9541583 -5.951787 1.1437894
-9.7836676 -14.635279 1.7576721
3.4825187 -5.0124297 1.0305154
-2.9702201 -5.9440899 1.1440061
-9.840476 -14.636433 1.7596769
3.4733472 -5.0224266 1.0308473
-2.9942145 -5.9474711 1.1449814
-9.8771772 -14.614821 1.7600019
3.4613464 -5.0240736 1.0306814
-3.0241461 -5.9547987 1.146336
-9.9593296 -14.64164 1.7640114
3.4479837 -5.0262308 1.0305154
-3.0407827 -5.9464788 1.1465527
-10.001261 -14.620569 1.7645533
3.4275956 -5.0091133 1.0291882
-3.0654962 -5.950376 1.1475822
-10.058154 -14.623609 1.7666664
3.4167087 -5.0133724 1.0291882
-3.1023946 -5.9669404 1.1495869
-10.132612 -14.642411 1.7700799
3.4049034 -5.0179586 1.0291882
-3.1289358 -5.9705029 1.1506705
-10.188761 -14.63825 1.7718678
3.3815489 -4.9924798 1.0273631
-3.1587491 -5.9801493 1.1521335
-10.262583 -14.661058 1.7754438
3.369657 -4.9939008 1.0271972
-3.1878028 -5.9853191 1.1533797
-10.311607 -14.6448 1.7764733
3.3584838 -5.001276 1.0273631
-3.1953132 -5.9664879 1.1528378
-10.360353 -14.633667 1.7777195
3.3502488 -5.0137606 1.0278609
-3.2358561 -5.9886103 1.1552218
-10.412099 -14.62878 1.7793448
3.3342376 -5.0041399 1.0270313
-3.2594328 -5.9867401 1.1559803
-10.494889 -14.652465 1.7833002
3.3179407 -4.997716 1.0263677
-3.2851439 -5.9895363 1.1548566
-10.540211 -14.636537 1.7788215
3.3056173 -4.9991446 1.0262017
-3.3020983 -5.9829211 1.15518
-10.611608 -14.654209 1.7821095
3.2967594 -5.0086184 1.0265336
-3.3364532 -5.9934635 1.1568509
-10.674688 -14.653241 1.7843194
3.2725649 -4.9800658 1.0245426
-3.351459 -5.9832745 1.1569587
-10.73129 -14.649936 1.786206
3.2761297 -5.0254211 1.0270313
-3.3887153 -6.0001898 1.159007
-10.791004 -14.652812 1.78847
3.2661881 -5.0320864 1.0271972
-3.4175601 -6.0037103 1.1601927
-10.861933 -14.660062 1.7913268
3.2421737 -5.0033684 1.0252063
-3.4580193 -6.0216136 1.1624027
-10.931596 -14.66823 1.7941835
3.2303944 -5.0075197 1.0252063
-3.485981 -6.027061 1.1636425
3.2195294 -5.0113764 1.0242455
-3.4381633 -5.9432878 1.158414
-11.026196 -14.63773 1.7963395
3.2019968 -4.9988832 1.0232534
-3.428539 -5.9037709 1.1564198
-11.092231 -14.640846 1.7988729
3.1883316 -4.9974003 1.0229228
-3.4582865 -5.9113741 1.1578212
-11.1556 -14.646155 1.8014064
3.1680505 -4.9734178 1.0212692
-3.4930604 -5.9222879 1.159546
-11.223761 -14.650995 1.8041015
3.1544752 -4.9718409 1.0209385
-3.5065255 -5.909029 1.159492
-11.295264 -14.659225 1.807066
3.1427736 -4.9757733 1.0209385
-3.5351229 -5.9148765 1.1607857
-11.359575 -14.664573 1.8096533
3.1356518 -4.9904809 1.0215999
-3.5646977 -5.9183726 1.1634859
-11.431897 -14.670171 1.8162808
3.1234527 -4.9945154 1.0215999
-3.5906773 -5.9199004 1.1645136
-11.49713 -14.673077 1.8188231
3.1194129 -5.0204663 1.0229228
-3.5846982 -5.8871698 1.162945
3.1012871 -5.0017557 1.0215999
-3.6091189 -5.8847251 1.1637563
3.0890584 -5.0057011 1.0215999
-3.6522477 -5.9047441 1.1661903
3.0777264 -5.009326 1.0215999
-3.6810875 -5.910027 1.1674883
3.0694847 -5.0211473 1.0220959
-3.7043209 -5.9058294 1.1681916
3.0545833 -5.0166359 1.0215999
-3.7317972 -5.908268 1.1693274
3.0431933 -5.0200753 1.0235035
-3.7501185 -5.9018521 1.1697601
3.0357265 -5.0346317 1.0241693
-3.7920899 -5.9173131 1.1719778
3.0131669 -5.0048361 1.0221717
-3.806859 -5.9047461 1.1720319
-13.306454 -15.968429 1.9397109
2.9912224 -4.9748201 1.020174
-3.8493681 -5.9235888 1.1744118
-13.37612 -15.969632 1.9424155
2.9804149 -4.978075 1.020174
-3.8843369 -5.9320507 1.1760885
-13.432736 -15.950787 1.9438217
2.9770331 -5.0096111 1.0218388
-3.9335456 -5.9551611 1.1789011
-13.490703 -15.933163 1.9453361
2.9701972 -5.0299354 1.0228376
-3.9581418 -5.9545259 1.1798205
-13.557163 -15.930185 1.9477701
2.9559836 -5.0219116 1.0221717
-4.0264335 -5.995676 1.1840936
-13.641755 -15.936642 1.9512858
2.937202 -5.0030022 1.0208399
-4.055809 -5.9984312 1.1853377
-13.703085 -15.924713 1.9531791
2.925878 -5.0062628 1.0208399
-4.0771856 -5.9939423 1.1859868
-13.739101 -15.889627 1.9531791
2.9157979 -5.0121813 1.0210063
-4.1111484 -5.9989018 1.1875012
-13.810259 -15.881373 1.9556129
2.9027505 -5.0128307 1.0208399
-4.1495485 -6.010365 1.1894484
-13.881903 -15.879278 1.9583175
2.8819776 -4.9821987 1.0188422
-4.186111 -6.0208397 1.1912874
-13.924678 -15.850711 1.9588583
2.874269 -4.99648 1.0195081
-4.198267 -6.0032682 1.191071
-13.849408 -15.694588 1.9497714
2.8667207 -5.0168943 1.0181527
-4.1968565 -5.9743657 1.1898811
-13.770504 -15.541897 1.9406846
2.8507729 -5.003046 1.0171623
-4.2577014 -6.0086288 1.1936132
-13.831217 -15.5321 1.9426858
2.8399012 -5.0059786 1.0171623
-4.2822804 -6.0032377 1.1943704
-13.887346 -15.508754 1.943984
2.8276629 -5.0092473 1.0171623
-4.2958984 -5.9880552 1.1943164
-13.944777 -15.489439 1.9454985
2.8069415 -4.9784188 1.0151815
-4.305047 -5.9717889 1.1940459
-14.006186 -15.482588 1.9476619
2.7965779 -4.9811325 1.0151815
-4.342165 -5.9784589 1.1957767
-14.082549 -15.478414 1.9505286
2.7931685 -5.0182772 1.0171623
-4.3515787 -5.9591174 1.1938274
-14.124813 -15.443689 1.9466712
2.7755663 -4.9986353 1.0158417
-4.3955469 -5.9753838 1.1961991
-14.217931 -15.463864 1.9511449
2.7625539 -4.9928875 1.0153465
-4.4329886 -5.9829025 1.1979778
-14.27126 -15.439435 1.9523308
2.7586098 -5.0270562 1.0171623
-4.4324522 -5.9538751 1.1968459
-14.345706 -15.435053 1.9551337
2.7467723 -5.0300016 1.0171623
-4.4822741 -5.9751081 1.1996487
-14.415199 -15.431434 1.9577749
2.7274847 -4.9986024 1.0151815
-4.5133457 -5.9749556 1.2008885
-14.51461 -15.44711 1.9623566
2.7180216 -5.0129514 1.0158417
-4.5419412 -5.9745069 1.2020204
-14.607743 -15.462119 1.9666686
2.707355 -5.0185313 1.0160068
-4.5856638 -5.9892149 1.2043382
-14.673983 -15.454309 1.9690404
2.6957724 -5.0182867 1.0158417
-4.612607 -5.9846835 1.2052546
-14.743925 -15.44093 1.9713581
2.6835032 -5.0211825 1.0158417
-4.6277533 -5.9712787 1.2053623
-16.141951 -16.666737 2.0740945
2.6747806 -5.0352325 1.0165021
-4.6652336 -5.979609 1.207195
-16.244102 -16.685614 2.0789456
2.6618714 -5.0292072 1.0160068
-4.7230921 -6.0031672 1.2104291
-15.72107 -16.11939 2.0364711
2.6411574 -4.9949322 1.0138609
-4.7469225 -5.9973874 1.2111838
-15.664107 -15.991093 2.0293562
2.6401005 -5.043148 1.0165021
-4.7527418 -5.975111 1.2105908
-16.524937 -16.699757 2.0909119
2.6286812 -5.0456967 1.0165021
-4.7959809 -5.9857259 1.2102923
-16.621792 -16.705393 2.088017
2.6092787 -5.0140324 1.0145212
-4.7986622 -5.9594975 1.2094344
-16.700394 -16.694061 2.0908053
2.5974743 -5.0166059 1.0145212
-4.8654661 -5.9931307 1.2134024
-16.815086 -16.721127 2.0964892
2.5865724 -5.0189548 1.0145212
-4.9052043 -5.9999151 1.2152791
-16.919342 -16.731869 2.1011543
2.5747557 -5.0214715 1.0145212
-4.9173203 -5.9819207 1.2151183
-17.810894 -17.441795 2.1637301
2.5653272 -5.0354109 1.0151815
-4.9450884 -5.9799991 1.2161907
-17.932186 -17.469616 2.1697357
2.5449095 -4.9918542 1.0125403
-4.9745283 -5.9761109 1.2172631
-17.600447 -17.088064 2.1421745
2.5327196 -4.99441 1.0116178
-5.0271006 -5.9945617 1.2201051
-16.754644 -16.26609 2.0774
2.5237269 -5.0081716 1.0122758
-5.0241213 -5.9653687 1.2189254
-15.638227 -15.218624 1.9932685
2.5128446 -5.0103512 1.0122758
-5.0499325 -5.9579744 1.2197297
-17.73291 -16.957191 2.142925
2.5005956 -5.0127726 1.0122758
-5.1004939 -5.9740491 1.2224107
-17.978104 -17.088095 2.1578319
2.4892488 -5.014987 1.0122758
-5.1306491 -5.9733982 1.223644
-18.518265 -17.473965 2.1941869
2.4755998 -5.0027227 1.0114533
-5.1602564 -5.9688139 1.2247164
-17.811104 -16.779675 2.1398151
2.4666278 -5.022294 1.0124403
-5.1856422 -5.9627261 1.2297984
-17.913284 -16.786533 2.1566062
2.4547219 -5.0215516 1.0122758
-5.2538338 -5.9938836 1.233801
-18.004856 -16.787115 2.1605005
2.4332242 -4.9660363 1.0089855
-5.2999945 -6.0026898 1.2360728
-18.075188 -16.759739 2.1625018
2.4273515 -5.0027905 1.0109597
-5.3456945 -6.0119534 1.2383444
-18.166348 -16.752779 2.1661258
2.414032 -4.9962716 1.0104662
-5.3903775 -6.0223517 1.2406161
-18.243946 -16.740517 2.1689925
2.4047012 -5.0068407 1.0109597
-5.4212432 -6.0187879 1.241806
-18.307493 -16.709862 2.1706152
2.3929152 -5.008904 1.0109597
-5.4370947 -6.0026917 1.2419143
-18.390562 -16.695129 2.1736441
2.3811243 -5.0109382 1.0109597
-5.4465365 -5.9835577 1.2416439
-18.427586 -16.648636 2.1735899
2.3746095 -5.0386963 1.0133657
-5.5081539 -6.0037432 1.2449973
-18.559803 -16.670357 2.1800265
2.3594115 -5.023447 1.0123754
-5.5604944 -6.0182409 1.2477558
-18.557484 -16.588326 2.1770515
2.3480396 -5.0253229 1.0123754
-5.5782857 -6.0055981 1.2480804
-18.429798 -16.408331 2.1652603
2.3357198 -5.018435 1.0118802
-5.6409969 -6.025712 1.251488
-18.457876 -16.34561 2.1642866
2.3284941 -5.0521765 1.0136958
-5.675355 -6.0249767 1.2529483
-18.462906 -16.270836 2.1619067
2.3120856 -5.0221887 1.0118802
-5.709197 -6.0248032 1.2544087
-18.607197 -16.310516 2.1695333
2.3011718 -5.023881 1.0118802
-5.7440491 -6.0218687 1.2540355
-18.710018 -16.30699 2.1689074
2.2902009 -5.0344315 1.0123754
-5.7609138 -6.0068417 1.2542511
-18.779049 -16.282606 2.1710634
2.279233 -5.0390344 1.0125403
-5.8094015 -6.0177665 1.2567306
2.26828 -5.0406513 1.0125403
-5.8365889 -6.0083628 1.2575929
-18.947842 -16.253973 2.177424
2.2542887 -5.030859 1.0118802
-5.8947892 -6.0241027 1.2606654
-19.063099 -16.261536 2.1827064
2.237534 -4.9977922 1.0098993
-5.914434 -6.0130935 1.2611505
-19.142303 -16.250111 2.1857786
2.2287393 -5.0108385 1.0105596
-5.9687223 -6.0241446 1.2638996
-19.292587 -16.280415 2.1933787
2.2164903 -5.0125251 1.0105596
-5.9846296 -6.0066285 1.2640073
-19.408337 -16.286568 2.1986611
2.2046566 -5.0138612 1.0151389
-6.0226626 -6.0082436 1.2657322
-19.466885 -16.254904 2.2001705
2.1937623 -5.0153065 1.0151389
-6.0843778 -6.0253439 1.2690201
-19.591396 -16.266737 2.2060456
2.1860702 -5.0487533 1.0169855
-6.1010752 -6.0081139 1.2691818
-19.688848 -16.257496 2.2100344
2.1701455 -5.018352 1.0151389
-6.1337891 -6.0051823 1.2705294
-19.800476 -16.264835 2.215209
2.1592402 -5.0197177 1.0151389
-6.2095923 -6.0308352 1.2747338
-19.93092 -16.276077 2.2213538
2.1473212 -5.024128 1.0153067
-6.2429838 -6.0268135 1.2760813
-20.024048 -16.265306 2.2251267
2.1356025 -5.0225911 1.0151389
-6.2965193 -6.0386982 1.2723007
-20.139252 -16.273659 2.2123802
2.1253657 -5.0296879 1.0154747
-6.3271785 -6.0299807 1.2733655
-20.24585 -16.265469 2.2167995
2.1134 -5.0340128 1.0156425
-6.3724775 -6.0341711 1.2754955
-22.011517 -17.477127 2.3336773
2.1013541 -5.0294852 1.0153067
-6.4393587 -6.0550113 1.2791163
-22.239479 -17.560101 2.3464034
2.087563 -5.0045247 1.0137959
-6.496994 -6.0652552 1.2819916
-22.36949 -17.560295 2.352154
2.0753307 -5.005846 1.0137959
-6.4966593 -6.0357456 1.2810332
-22.452038 -17.532608 2.3549228
2.0640016 -5.007041 1.0137959
-6.5511465 -6.0468159 1.283802
-21.952879 -17.090992 2.3187149
2.0540128 -5.016892 1.0142995
-6.5986648 -6.0490999 1.2859852
-22.67914 -17.517071 2.3645074
2.0432432 -5.0331678 1.0064379
-6.6321716 -6.0423679 1.2872632
-22.760271 -17.483761 2.3670633
2.0291376 -5.0110378 1.0051374
-6.6582146 -6.0325766 1.288115
-22.869156 -17.476757 2.3716958
2.0190749 -5.0208158 1.0056251
-6.739625 -6.059227 1.2925878
-22.942333 -17.437183 2.3737192
2.0056481 -5.0044403 1.0046499
-6.7636623 -6.0453033 1.2932267
1.9946516 -5.0142493 1.0051374
-6.7409344 -6.0011668 1.2908306
1.9817246 -4.9918985 1.0038371
-6.739995 -5.9700036 1.289819
1.9689907 -4.9812484 1.0031869
-6.7613611 -5.9542913 1.292227
1.9572698 -4.9822254 1.0031869
-6.8138857 -5.9621897 1.2948453
-23.039219 -17.065825 2.3722386
1.9492416 -5.0180926 1.0051374
-6.9519715 -6.0245171 1.3030207
-23.187454 -17.073496 2.3791852
1.9369742 -5.0190558 1.0051374
-6.9867711 -6.0183926 1.30441
-23.304401 -17.066147 2.3842614
1.9229957 -4.9849148 1.0031869
-7.0145679 -6.0085926 1.3053718
-23.427933 -17.06617 2.3898721
1.9142832 -5.0148878 1.0048125
-7.080472 -6.0206552 1.3087382
-23.575064 -17.070984 2.3967116
1.9030441 -5.0303502 1.0056251
-7.119422 -6.0167704 1.3103946
-23.732141 -17.088642 2.4044061
1.8912628 -5.0252953 1.0053
-7.1294079 -5.9947062 1.3101809
-23.837444 -17.074669 2.4087877
1.8807162 -5.0317559 1.0074514
-7.1784277 -5.9948249 1.3124251
-23.973703 -17.070148 2.4148791
1.866223 -4.9975085 1.0054874
-7.2100992 -5.9857092 1.3136007
-24.118298 -17.077442 2.4217188
1.8571975 -5.0361605 1.0076151
-7.2657242 -5.9933043 1.3163793
-24.259823 -17.085543 2.4284515
1.8450701 -5.0163641 1.0064695
-7.3288097 -6.0018463 1.3195319
-27.507139 -19.098106 2.6377532
1.8313556 -4.9907713 1.0049964
-7.3766985 -6.0014358 1.3217227
-27.633486 -19.076967 2.6429362
1.8217689 -5.0323005 1.0072877
-7.41008 -5.9938946 1.3301868
-27.850395 -19.121361 2.6777496
1.8093591 -5.0036507 1.0056511
-7.4342213 -5.9778976 1.3308358
-27.973755 -19.096886 2.6827798
1.7975831 -5.00423 1.0056511
-7.5439339 -6.0161886 1.3371102
-28.156437 -19.109554 2.6917045
1.7858056 -5.0047798 1.0056511
-7.5621138 -5.9984269 1.3374348
-28.283817 -19.094337 2.6972215
1.7749329 -5.0052614 1.0056511
-7.6306162 -6.0086002 1.3409505
-27.870148 -18.726587 2.6669319
1.7626995 -5.0057735 1.0056511
-7.6749754 -6.0057569 1.3429518
-28.646095 -19.113445 2.7148001
1.7513716 -5.0062194 1.0056511
-7.6790762 -5.9789038 1.3423567
-30.015079 -19.868324 2.8013959
1.7417529 -5.0417004 1.0076151
-7.7469435 -5.9878702 1.3458185
-29.092911 -19.185146 2.7379501
1.7282591 -5.0070443 1.0056511
-7.8030195 -5.9916754 1.348577
-29.316772 -19.221516 2.7495792
1.7180102 -5.0424919 1.0076151
-7.8478031 -5.9895287 1.3506323
-29.489258 -19.229368 2.7579629
1.7068005 -5.0340462 1.0071241
-7.8684492 -5.9687886 1.3510109
-27.507244 -17.913687 2.6260951
1.6938105 -5.0080643 1.0056511
-7.9246674 -5.9719934 1.3537694
-27.596207 -17.872309 2.6291239
1.6824768 -5.0083447 1.0056511
-7.9971151 -5.9859276 1.3576097
-26.604067 -17.183817 2.5622704
1.6715963 -5.0085883 1.0056511
-8.0177784 -5.9647589 1.3579884
-27.951437 -17.890896 2.6465404
1.6597912 -5.0322299 1.0069604
-8.0961256 -5.9791088 1.3524377
-28.154255 -17.911922 2.6269095
1.6475666 -5.009038 1.0056511
-8.1344481 -5.9718504 1.3540351
-28.29467 -17.902678 2.6332459
1.6366847 -5.0092015 1.0056511
-8.1881704 -5.9709921 1.3565377
-30.477404 -19.086861 2.7687602
1.6248949 -5.0093503 1.0056511
-8.2739296 -5.988615 1.3610637
-30.666485 -19.090248 2.7777588
1.6131051 -5.00947 1.0056511
-8.2828836 -5.9635944 1.3607974
-30.804972 -19.071545 2.7837758
1.602222 -5.0095539 1.0056511
-8.3288584 -5.9562492 1.3627677
-31.032509 -19.091312 2.7950642
1.5899785 -5.0096188 1.0056511
-8.3881397 -5.9588699 1.365643
-31.217869 -19.093937 2.8039033
1.5786414 -5.0096507 1.0056511
-8.3766947 -5.9219942 1.3640988
1.5677581 -5.0097818 1.0033836
-8.433712 -5.9204464 1.3667612
1.5555141 -5.009757 1.0033836
-8.5126162 -5.9335246 1.3708613
1.5441773 -5.0097065 1.0033836
-8.5588007 -5.929059 1.3729379
-26.660061 -16.113876 2.5071034
1.5332937 -5.0096321 1.0033836
-8.6364346 -5.9381514 1.3768781
-31.457592 -18.700993 2.804702
1.5211737 -4.997818 1.0027347
-8.6858215 -5.9336796 1.3791145
-31.685787 -18.724245 2.8162034
1.5098655 -4.997685 1.0027347
-8.7773647 -5.9535856 1.3840133
-31.832296 -18.705353 2.8226995
1.4988313 -5.0092306 1.0033836
-8.8578796 -5.9630642 1.3881133
-32.046577 -18.710541 2.8330827
1.4865887 -5.0090284 1.0033836
-8.9918728 -6.0026264 1.3955679
-32.277306 -18.727798 2.8445842
1.4748003 -5.0088029 1.0033836
-9.0679188 -6.0138793 1.3995082
-32.483299 -18.743093 2.8548608
1.464174 -5.0173526 1.0038705
-9.1634359 -6.030005 1.4045135
-34.843956 -19.90461 2.9984152
1.4515433 -5.0316811 1.0046818
-9.2061481 -6.0185642 1.4062706
-34.467594 -19.585508 2.9720581
1.4393749 -5.0430641 1.0053308
-9.3260374 -6.0508165 1.4128733
-34.579929 -19.538927 2.9762645
1.4289403 -5.0252051 1.0043572
-9.4463882 -6.0799856 1.4194226
-34.77861 -19.528879 2.9855828
1.4180605 -4.9955997 1.0027347
-9.4393167 -6.0412369 1.4180915
-35.045593 -19.553915 2.9991076
1.4063087 -4.9951286 1.0040917
-9.5475807 -6.0658312 1.4239488
-35.203873 -19.529526 3.0061362
1.3941524 -5.0298142 1.0060489
-9.5911217 -6.052022 1.4257059
-35.448189 -19.535822 3.0181167
1.3827884 -5.0059581 1.0047441
-9.6439409 -6.0455542 1.428102
-35.684746 -19.545883 3.0298312
1.3714612 -5.0054922 1.0047441
-9.6979733 -6.0408354 1.4306046
-35.912785 -19.554932 3.0411196
1.3592863 -5.0342431 1.0063752
-9.764986 -6.0384331 1.4337995
-38.440399 -20.727175 3.1931403
1.3483567 -5.0044603 1.0047441
-9.7892456 -6.0166602 1.4344385
1.3354409 -5.0360503 1.0065383
-9.7946453 -5.9866428 1.4339592
1.3249521 -5.0267315 1.0060489
-9.8259964 -5.9656425 1.4349709
-38.439552 -20.360476 3.1840351
1.3139367 -5.0027122 1.0047441
-10.011465 -6.024334 1.4454606
-38.625427 -20.333534 3.1924481
1.3026175 -5.0020819 1.0047441
-10.11377 -6.0420513 1.4508917
-38.888062 -20.348755 3.2056534
1.2907155 -5.0189724 1.0057228
-10.071012 -5.9833946 1.4473774
-39.175117 -20.360241 3.2199769
1.2780883 -5.0240693 1.0060489
-10.251572 -6.036108 1.4574945
-37.549721 -19.4363 3.1180618
1.266263 -5.0233245 1.0060489
-10.223658 -5.9888887 1.4549918
1.2553489 -5.0226107 1.0060489
-10.412516 -6.0442533 1.465588
-39.931198 -20.359276 3.2570369
1.2435219 -5.0218844 1.0046818
-10.469954 -6.0352154 1.4681971
-40.194645 -20.358734 3.2699761
1.2319109 -5.018136 1.0045195
-10.624809 -6.0754204 1.4767699
1.2233803 -4.9852533 1.0027347
-10.64776 -6.0477152 1.4772491
1.2085235 -5.0193377 1.0046818
-10.736542 -6.0539541 1.4817752
-42.607246 -21.126427 3.4069278
1.1967041 -5.0242867 1.0050063
-10.904284 -6.09832 1.4910934
1.1862619 -5.0175815 1.0046818
-10.913183 -6.0632329 1.4907207
-43.192947 -21.136467 3.4361074
1.174732 -5.0078249 1.004195
-11.008513 -6.0711913 1.4942945
1.1626465 -5.015604 1.0046818
-11.100672 -6.078681 1.4990251
-43.766289 -21.145588 3.459919
1.1517503 -5.0146523 1.0046818
-11.160032 -6.0662804 1.5016829
-43.99752 -21.109493 3.4705498
1.1394951 -5.0135508 1.0046818
-11.190788 -6.0435314 1.5026927
1.1314211 -4.9775529 1.0027347
-11.080586 -5.9583807 1.4953043
-46.406647 -21.941284 3.6088557
1.1172616 -5.0114708 1.0046818
-11.132668 -5.9425097 1.4975369
1.1050148 -5.0102801 1.0046818
-11.186876 -5.9288216 1.4999287
-49.663952 -23.102371 3.7967541
1.090286 -5.0381818 1.006763
-11.267098 -5.9308281 1.5039685
-51.471008 -23.768902 3.90152
1.0827992 -5.0080128 1.0051374
-11.367416 -5.9354343 1.5090712
-51.821712 -23.759415 3.9187951
1.0696373 -5.0154605 1.0056251
-11.506601 -5.9580069 1.5165128
-52.12133 -23.731909 3.9331465
1.0572035 -5.0200119 1.0059502
-11.707478 -6.009666 1.527675
-52.468513 -23.735956 3.9505808
1.044044 -5.0391684 1.0070881
-11.913351 -6.059401 1.5390499
-52.77932 -23.71032 3.9655702
1.0331693 -5.0291204 1.0066004
-11.966314 -6.0424094 1.5413356
-53.150375 -23.709045 3.9841208
1.0216687 -5.024859 1.0064379
-12.072674 -6.0510206 1.5511156
-55.086166 -24.385349 4.1133914
1.0107515 -5.0235825 1.0064379
-12.110083 -6.0252986 1.5524515
-55.494171 -24.385033 4.1339636
0.99847364 -5.0221157 1.0064379
-12.164328 -6.0096006 1.5548561
-55.793648 -24.349936 4.1483374
0.98567796 -5.0323429 1.0070881
-12.284606 -6.0228019 1.5612147
-56.174656 -24.354021 4.1676807
0.97438002 -5.0338855 1.0072505
-12.382362 -6.0213904 1.5661306
-56.504372 -24.315495 4.1835508
0.96393442 -5.0178175 1.0064379
-12.448439 -6.0095706 1.5692298
-56.844986 -24.292927 4.2003288
0.95106459 -5.0279512 1.0070881
-12.564529 -6.0194926 1.5753213
-57.166374 -24.267477 4.2160921
0.93937039 -5.032311 1.0074131
-12.660715 -6.0160179 1.5801303
-57.771313 -24.335968 4.2482061
0.92588782 -5.039381 1.0074403
-12.782099 -6.0253963 1.5864891
-59.664627 -24.934172 4.3566775
0.91568089 -5.0291286 1.0069535
-12.790813 -5.990644 1.5862219
0.90719366 -5.0102272 1.0059799
-12.817394 -5.9582472 1.5869164
0.89495039 -5.0084929 1.0059799
-12.901405 -5.9500418 1.591031
-60.955299 -24.920021 4.422081
0.87979531 -5.0299497 1.0072781
-13.083324 -5.9830351 1.6009698
-61.280602 -24.88155 4.4378972
0.87229037 -5.005197 1.0059799
-13.202969 -5.9876285 1.6071681
-61.665291 -24.85083 4.4569201
0.85181069 -5.0612936 1.0092252
-13.28377 -5.9766064 1.6080244
-63.874588 -25.523214 4.569634
0.84520197 -5.0247869 1.0072781
-13.412516 -5.9868784 1.6147866
-64.252098 -25.495279 4.5883236
0.83428574 -5.0231037 1.0072781
-13.496563 -5.9745574 1.6188335
-64.709984 -25.474466 4.6112733
0.82200956 -5.0211811 1.0072781
-13.513879 -5.9399109 1.6190464
-65.177048 -25.469414 4.6350217
0.81064725 -5.019372 1.0072781
-13.552483 -5.9148836 1.6205374
-65.552582 -25.435125 4.6535516
0.79927349 -5.0204968 1.0074403
-13.583533 -5.8819561 1.6214958
0.78509402 -5.0300274 1.0080893
-13.75612 -5.9045577 1.6307609
0.77031946 -5.0483232 1.0092252
-13.777319 -5.8724017 1.6312401
0.76130509 -5.0349836 1.0076512
-13.815633 -5.8414435 1.6326245
-68.335052 -25.695414 4.8009934
0.74850011 -5.0357537 1.007813
-14.174706 -5.9296155 1.6526988
0.74165177 -5.0078373 1.0063577
-14.143669 -5.8776631 1.6501429
0.72616625 -5.0318365 1.007813
-14.304238 -5.8890681 1.6586092
-72.658943 -26.659388 5.0409784
0.71438766 -5.0267549 1.0076512
-14.665245 -5.9738727 1.6787366
-73.101746 -26.615637 5.0629697
0.70301247 -5.0246878 1.0076512
-14.77277 -5.967947 1.6841679
-73.599976 -26.589256 5.0881553
0.69270873 -5.0168409 1.0073278
-14.924191 -5.9750223 1.6921016
-74.201416 -26.58831 5.1191454
0.67982221 -5.0203867 1.0076512
-15.022287 -5.9629316 1.6969471
-74.711143 -26.552727 5.1448107
0.66855526 -5.0152769 1.0074896
-15.171913 -5.9715853 1.7048278
-77.270599 -27.232893 5.2890573
0.65267277 -5.0390377 1.0089449
-15.314455 -5.973526 1.712229
-77.850052 -27.210413 5.3186092
0.63856673 -5.0482173 1.0095917
-15.436779 -5.9679432 1.718459
-78.383667 -27.169643 5.345499
0.63066316 -5.0257916 1.0084598
-15.565482 -5.9675369 1.7251148
-78.88559 -27.132845 5.3708448
0.6249218 -4.9978027 1.0070045
-15.737567 -5.9754171 1.7341669
0.6103816 -5.0068035 1.0076512
-15.775314 -5.9419365 1.7355514
0.59432817 -5.0274596 1.0080155
-15.867156 -5.9278121 1.7400774
-82.335999 -27.60848 5.5579023
0.59055901 -4.9908333 1.0060818
-16.116524 -5.9586611 1.7535489
-82.786011 -27.514 5.5796804
0.57112575 -5.0226269 1.0080155
-16.250854 -5.9550657 1.7604711
-83.398941 -27.487514 5.6110964
0.55976057 -5.020216 1.0080155
-16.381006 -5.9513917 1.7671802
-83.885101 -27.426826 5.6353769
0.54392028 -5.0407524 1.0093046
-16.532402 -5.9481192 1.7750075
-84.476868 -27.370127 5.6652489
0.53659415 -5.0152149 1.0080155
-16.601837 -5.9222755 1.7782023
-85.043259 -27.320749 5.6939487
0.52272248 -5.0241475 1.0086601
-16.781544 -5.9322491 1.7877336
-87.427162 -27.841564 5.826694
0.506706 -5.0445614 1.0099492
-16.888458 -5.9131947 1.793005
0.49695635 -5.0303774 1.0093046
-17.017241 -5.9022174 1.7995546
-88.622116 -27.710821 5.88697
0.49098754 -5.0020208 1.0078543
-17.181408 -5.9052081 1.8081806
0.46826673 -5.0508251 1.0107549
-17.330887 -5.8991032 1.8159013
0.46503329 -5.0110312 1.0086601
-17.476715 -5.8911767 1.8234093
-92.511505 -28.148273 6.0972433
0.45055151 -5.0196466 1.0093046
-17.682344 -5.9041142 1.8343782
-93.080612 -28.080395 6.1259966
0.43149352 -5.0511985 1.0112383
-18.00585 -5.9443717 1.8519497
-93.728073 -28.003143 6.1587439
0.42738271 -5.0141354 1.0088377
-18.293926 -5.976788 1.8675511
-94.372353 -27.94162 6.1915975
0.41048861 -5.0341153 1.0101246
-18.533909 -5.9960995 1.8804369
0.39184952 -5.0626745 1.0118941
-18.83672 -6.0257816 1.8967838
0.38937879 -5.0198684 1.009642
-18.908699 -5.9933028 1.9000852
0.36944795 -5.0510631 1.0115724
-18.956608 -5.9559398 1.9020553
-99.09082 -28.2617 6.4442554
0.35919333 -5.0454502 1.0114114
-19.321003 -5.9992661 1.9218633
-100.15005 -28.273151 6.500165
0.35560036 -5.0082989 1.0094812
-19.497231 -5.9936457 1.9352539
-101.4171 -28.357002 6.588623
0.34133005 -5.0166979 1.0101246
-19.631807 -5.9781017 1.942147
-103.188 -28.581699 6.6854997
0.33784962 -4.9855585 1.008516
-19.74828 -5.9505491 1.9479179
-103.75549 -28.442944 6.7135525
0.30919623 -5.0445619 1.0120549
-19.949038 -5.9469681 1.9584978
-104.80756 -28.440762 6.7692308
0.30034685 -5.030098 1.0114114
-20.097345 -5.9352741 1.9661922
-105.23726 -28.302834 6.7900701
0.28987503 -5.0272841 1.0114114
-20.345079 -5.9398746 1.9793906
0.2775898 -5.023952 1.0114114
-20.495169 -5.9203253 1.9870851
-106.92808 -28.158703 6.8777556
0.26576781 -5.0207129 1.0114114
-20.69146 -5.9163523 1.9974513
0.25329661 -5.0233335 1.0117332
-21.00239 -5.9358225 2.0142298
-113.74904 -29.325211 7.2557492
0.23673582 -5.0369334 1.0126984
-21.337208 -5.9596786 2.0323439
0.21531725 -5.0673676 1.0146288
-21.727034 -6.0001469 2.0536106
0.21394682 -5.0304828 1.0126984
-21.93222 -5.986455 2.0643508
0.20489693 -5.0157108 1.0120549
-22.017925 -5.9476271 2.0684118
0.19027948 -5.0236578 1.0126984
-22.763695 -6.0688362 2.0976901
0.17936778 -5.0204678 1.0126984
-22.957062 -6.0481539 2.1076479
-117.25957 -28.363953 7.3714299
0.16045022 -5.0392866 1.0139853
-23.231977 -6.05058 2.1222136
0.14653277 -5.0442996 1.014468
-23.383945 -6.0257273 2.1299469
-118.55782 -28.076107 7.4365258
0.13810658 -5.0326071 1.0139853
-23.573698 -6.0012674 2.1396928
-121.02477 -28.313587 7.5700021
0.125808 -5.028882 1.0139853
-23.562674 -5.9354906 2.1383157
-120.98703 -27.996082 7.5641756
0.11271262 -5.0309973 1.014307
-23.739346 -5.9144077 2.1474259
0.093136072 -5.0555744 1.0159156
-24.109041 -5.927577 2.1671824
0.08163476 -5.0489902 1.0147967
-24.65847 -5.9807348 2.1969497
0.062719107 -5.0675836 1.0160792
-24.946068 -5.9798365 2.2122042
0.072071075 -4.9999743 1.0123922
-25.018429 -5.9262571 2.2154353
0.049601078 -5.0296535 1.0143158
-25.475187 -5.9535103 2.2400117
0.030571222 -5.0481148 1.0155983
-2.9692163 -14.33339 1.5503142
-25.754555 -5.9469357 2.2547894
-124.35539 -26.521473 7.7259364
0.018697739 -5.0473394 1.0157585
-26.115889 -5.9477043 2.2740164
0.004535675 -5.0488634 1.0160792
-26.454054 -5.9474754 2.2975004
-0.0041315556 -5.0367637 1.0155983
-26.661144 -5.9220991 2.3082905
-0.022481203 -5.0553255 1.0168808
-26.809624 -5.8756771 2.315732
-0.034837723 -5.0511847 1.0168808
-27.178993 -5.8774738 2.3355052
-132.04388 -26.419544 8.1603556
-0.049088955 -5.0556326 1.0173616
-27.875408 -5.943676 2.373457
-0.064804554 -5.0657325 1.0181631
-28.046165 -5.8973389 2.3821211
-0.074327946 -5.0531845 1.0176822
-28.520533 -5.9132519 2.4076879
-0.090564251 -5.0630436 1.0184836
-28.985016 -5.9280605 2.4327235
-0.10061717 -5.0564971 1.0173531
-29.427374 -5.9274645 2.45643
-0.12043977 -5.0733027 1.0185777
-29.849655 -5.9271584 2.4790735
-0.12735057 -5.0563722 1.0178323
-30.292267 -5.9284592 2.5028331
-0.13879442 -5.0522871 1.0178323
-30.804758 -5.9367294 2.5304198
-0.16890025 -5.0984535 1.0207608
-31.030201 -5.892725 2.5421138
-0.1745708 -5.0766912 1.0197492
-31.231482 -5.8499823 2.552532
-0.17419457 -5.041533 1.0179387
-31.792751 -5.8571281 2.569766
-0.19766712 -5.0671844 1.0196959
-32.684406 -5.922781 2.617954
-0.22376204 -5.1022272 1.0219855
-33.211269 -5.9279814 2.6461384
-0.23074675 -5.0871272 1.0213466
-33.842987 -5.9371958 2.6799703
-0.27075243 -5.1554222 1.0256064
-34.172424 -5.9023876 2.6972818
-0.27237678 -5.1245642 1.0240622
-34.679604 -5.8972645 2.7243578
-0.28979945 -5.1367002 1.0250206
-35.48737 -5.9250603 2.7677956
-0.32835698 -5.1991816 1.0289609
-36.088074 -5.9248505 2.7999384
-0.3493309 -5.2182431 1.0303453
-36.290081 -5.8663387 2.8102834
-0.37633109 -5.2537642 1.0326881
-37.080292 -5.8815107 2.8527184
-0.42247987 -5.3330636 1.0376402
-38.283432 -5.9555683 2.917743
-0.43074894 -5.3172045 1.0370013
-38.910988 -5.9544716 2.9513636
-0.46792388 -5.3779659 1.040835
-39.761143 -5.9653492 2.9970181
-0.66989708 -5.8411722 1.0684171
-40.21104 -5.9215813 3.0208218
-0.70905542 -5.897912 1.0720911
-41.33091 -5.9732437 3.0771091
-0.7190268 -5.8854299 1.0716652
-41.683449 -5.9106922 3.0955493
-0.76304603 -5.9527464 1.0759782
-43.056332 -5.9774075 3.1695735
-0.77979279 -5.9532161 1.0763509
-43.330605 -5.9077301 3.183799
-0.83975935 -6.0602894 1.0830069
-44.628391 -5.9499588 3.2536609
-0.83583093 -6.0090785 1.0803444
-45.550945 -5.9492779 3.3031332
-0.87082648 -6.0535865 1.0833263
-46.32214 -5.930891 3.3443866
-0.99219465 -6.3018966 1.0977678
-46.934326 -5.8763485 3.376894
-0.87368345 -5.9824567 1.0792171
-48.225658 -5.9053345 3.4463873
-0.90743613 -6.0231371 1.0819811
-49.266804 -5.9052429 3.5022874
-1.0604768 -6.3394074 1.1011164
-50.104313 -5.8631516 3.5470181
-0.96713853 -6.0833154 1.0862865
-51.204624 -5.8548355 3.6060793
-0.95786166 -6.024559 1.0831505
-52.191174 -5.8346462 3.6589763
-1.080864 -6.2665792 1.0979272
-52.992252 -5.7752552 3.701705
-1.090791 -6.2472258 1.0971831
-54.021881 -5.7396641 3.7568674
-1.0077918 -6.0226345 1.0841604
-55.348595 -5.7385654 3.8282046
-1.0454907 -6.0708914 1.0874028
-56.564026 -5.7096481 3.8934302
-1.0235841 -5.9844656 1.082619
-58.19529 -5.7126942 3.9812057
-1.0495679 -6.0036917 1.0841604
-59.579155 -5.6974258 4.0555987
-1.12923 -6.1420107 1.0928245
-60.869087 -5.6555939 4.1248283
-1.2020788 -6.2608824 1.1003723
-61.650017 -5.5645657 4.1664505
-1.0948746 -5.9923077 1.086452
-63.464943 -5.5665493 4.2641835
-1.1428213 -6.0603018 1.0909405
-64.868584 -5.5082951 4.3395252
-1.2473626 -6.2427979 1.1024288
-67.675323 -5.5635262 4.4909453
-1.1477349 -5.9965067 1.0878947
-67.894493 -5.419693 4.5021677
-1.2197967 -6.1133823 1.0953755
-70.366447 -5.416523 4.6353583
-1.1794624 -5.9910512 1.0883756
-1.1931437 -5.9844422 1.0883756
-73.736481 -5.3032284 4.8238316
-1.2964057 -6.1630144 1.0996503
-76.863266 -5.309185 4.9927268
-1.3485613 -6.2308578 1.1042455
-5.6846504 -15.069102 1.6437171
-1.2480158 -5.9912553 1.0900321
-5.7123089 -15.035931 1.6427553
-79.786865 -5.1142426 5.1500106
-1.2520448 -5.9664125 1.08891
-5.7605519 -15.047954 1.6445186
-82.805481 -5.0756111 5.3129945
-1.2990088 -6.023633 1.092864
-4.7034578 -12.836918 1.5102384
-1.298425 -5.9868412 1.0910473
-5.8670368 -15.073235 1.6483659
-85.667236 -4.8199806 5.4669003
-1.3106693 -5.9784832 1.0909405
-5.8970962 -15.048248 1.6478848
-1.3267102 -5.9749074 1.088091
-5.9371786 -15.036057 1.6403223
-88.562332 -4.5213318 5.6226006
-1.3280108 -5.9424949 1.086555
-5.7615275 -14.602397 1.6150042
-88.512482 -4.311348 5.619381
-1.357549 -5.9678869 1.0885148
-5.8069639 -14.609764 1.6164873
-1.3736091 -5.9628839 1.0886737
-5.894278 -14.687587 1.6224196
-91.66317 -3.9878769 5.7890153
-1.4025455 -5.9852109 1.0904746
-6.1131206 -15.023325 1.644083
-91.665665 -3.7732277 5.7886987
-1.4020854 -5.9524422 1.0888855
-5.6187525 -13.997682 1.5822707
-91.686165 -3.5323868 5.7893319
-1.4345013 -5.9783654 1.0909512
-5.5837274 -13.845334 1.5740609
-1.4641452 -6.0012941 1.0928051
-5.614851 -13.825563 1.573902
-94.923805 -3.1926498 5.9638743
-1.4805151 -6.0003181 1.0931759
-5.6675711 -13.849429 1.5763915
-94.886246 -2.9417191 5.9614468
-1.4634916 -5.9331164 1.0895212
-5.7017508 -13.828927 1.5762855
-94.913857 -2.711174 5.9626079
-97.515648 -2.7774544 6.103477
-1.503901 -5.975595 1.0925932
-4.6812611 -11.861072 1.4558921
-97.53582 -2.5498924 6.1042686
-1.5095555 -5.9547925 1.0917457
-4.7004504 -11.832944 1.4550446
-100.70702 -2.3586082 6.2756448
-1.532649 -5.962203 1.0926992
-5.8283277 -13.826923 1.5794635
-187.07433 -3.666069 10.950823
-1.5618303 -5.9817963 1.0943941
-5.8832045 -13.846895 1.581847
-1.5853157 -5.9933505 1.0955594
-5.9172311 -13.834828 1.5821648
-1.5858122 -5.9607463 1.0940233
-5.9652061 -13.84169 1.5837538
-197.23793 -2.4013443 11.499891
-1.6023425 -5.9571152 1.0942881
-5.9966102 -13.818605 1.5834889
-1.5891221 -5.9030433 1.091375
-6.0521069 -13.844511 1.5861902
-1.6219056 -5.9271007 1.0933877
-6.0708776 -13.795873 1.5843894
-1.6421797 -5.9312987 1.0941293
-6.1215658 -13.809729 1.5864022
-1.6667893 -5.9442086 1.0954005
-6.1715508 -13.825009 1.5884678
-1.6848441 -5.9417248 1.0957712
-6.2167959 -13.822673 1.5895802
-1.6930361 -5.9246192 1.0951886
-6.2531385 -13.81072 1.590004
-1.7295394 -5.9575586 1.097731
-6.3249283 -13.862653 1.5944002
-1.7353656 -5.9338446 1.0967776
-6.3443108 -13.815233 1.5927052
-1.7667016 -5.9561639 1.0986844
-6.3950181 -13.827323 1.5946651
-1.767845 -5.9283218 1.0974132
-6.4336123 -13.821548 1.5954595
-1.7784687 -5.9129543 1.0969894
-6.4676428 -13.799106 1.5953536
-1.8104751 -5.9358773 1.0989492
-6.5460587 -13.856799 1.6002264
-1.8164866 -5.9152198 1.0981548
-6.5745583 -13.830619 1.5998027
-1.8431354 -5.9276204 1.099479
-6.6199145 -13.829466 1.6010211
-1.8779714 -5.9532547 1.1016505
-6.6784849 -13.849834 1.6036164
-1.2614262 -5.3476582 1.0413339
-5.8888383 -13.800457 1.5397549
-1.3084795 -5.4019294 1.0449657
-5.9276433 -13.788051 1.5401584
-1.3061599 -5.3686719 1.043402
-5.9737644 -13.794884 1.5416212
-1.3729664 -5.4609742 1.0492532
-5.9920893 -13.754584 1.5402594
-1.3273193 -5.3479519 1.0429984
-6.0699172 -13.811647 1.5447991
-1.3151022 -5.2977638 1.0404259
-6.1119661 -13.810394 1.545808
-1.6704221 -5.8979211 1.0764922
-6.1368885 -13.78175 1.5451522
-1.6980593 -5.9125023 1.0778542
-6.2003727 -13.811856 1.5481284
-1.7121538 -5.9044456 1.0778542
-6.2472401 -13.815397 1.5494902
-1.7387817 -5.9206371 1.0792665
-6.3003368 -13.835496 1.5517602
-1.7284418 -5.8702908 1.0767443
-6.3238964 -13.798224 1.5507009
-1.7876202 -5.9396725 1.0813851
-6.3743343 -13.80726 1.5524158
4.3115349 -5.0386362 1.0276735
-1.7893515 -5.9126782 1.0802249
-6.4168391 -13.808393 1.553576
4.2874908 -5.0220814 1.0262989
-6.473197 -13.823911 1.5557451
4.2591863 -5.0009632 1.028265
-1.8344287 -5.9245987 1.0819399
-6.514153 -13.818959 1.5566026
4.2420969 -4.9972095 1.0276462
-1.8504626 -5.9218764 1.0822426
-6.5558271 -13.818013 1.5576619
4.2369771 -5.0135393 1.028265
-6.6084604 -13.826323 1.5594274
4.2075677 -4.98979 1.0264087
-1.9008261 -5.9417205 1.084462
-6.648519 -13.819314 1.560184
4.1934252 -4.990983 1.0260993
-1.8941958 -5.9012876 1.0824949
-6.6898165 -13.817148 1.5611929
4.1910796 -5.0123615 1.0270275
-1.9377292 -5.9398832 1.0853701
-6.7350473 -13.81249 1.5622017
4.1618953 -4.9883695 1.0251712
-1.9330568 -5.9017096 1.0816492
-6.7686634 -13.794514 1.5577353
4.17307 -5.0356307 1.0276462
-1.9404167 -5.8845978 1.0810974
-6.8146281 -13.799473 1.55919
4.14534 -5.0107675 1.02579
-1.9796301 -5.9154005 1.0835052
-6.8779082 -13.823435 1.561949
4.116385 -4.9865346 1.0239336
-1.9926738 -5.9061522 1.083455
-6.9207182 -13.819808 1.5629522
4.1106381 -5.0029287 1.0245523
-6.9847775 -13.849946 1.566012
4.1034484 -5.0167418 1.0250164
-2.0576763 -5.9482999 1.0870667
-7.0144835 -13.822083 1.5656108
4.0875139 -5.0152893 1.0245523
-2.0603833 -5.9212184 1.085963
-7.0707097 -13.836186 1.5677676
4.0811677 -5.0318947 1.0251712
-2.0833602 -5.9285831 1.0869162
-7.1129322 -13.833647 1.5688212
4.0540009 -5.0067673 1.0192196
-2.0953913 -5.9162793 1.0867155
-7.1598949 -13.832606 1.5700752
4.0422096 -5.0129423 1.0192196
-2.1158252 -5.9170752 1.0873175
-7.206378 -13.830595 1.571279
4.0142326 -4.9879246 1.0173903
-2.1373179 -5.9217825 1.08812
-7.243947 -13.820292 1.5718811
3.9926603 -4.9727335 1.0161706
-2.1482551 -5.9065547 1.0877689
-7.3082743 -13.842511 1.5746398
3.9965224 -5.0102282 1.018
-2.1794004 -5.9246697 1.0894243
-7.3461537 -13.82946 1.5751414
3.9851766 -5.0160284 1.018
-2.2052896 -5.9356899 1.0906281
-7.3896828 -13.827756 1.5762951
3.9636908 -5.0006924 1.0167804
-2.2167952 -5.9211826 1.0890248
-7.4399281 -13.827545 1.5745804
3.9514623 -5.0068703 1.0167804
-2.2389996 -5.9251924 1.0898244
-7.4918594 -13.835264 1.5763795
3.9401257 -5.0125623 1.0167804
-2.2634077 -5.9335475 1.090874
-7.5463653 -13.849359 1.5785285
3.9174972 -4.9944272 1.0154084
-2.2965751 -5.9512501 1.092573
-7.5782652 -13.820967 1.5782287
3.9169567 -5.0240889 1.0167804
-2.2949469 -5.9194317 1.0911738
-7.617301 -13.808805 1.5788283
3.9055779 -5.0296984 1.0167804
-2.3276746 -5.9396839 1.0929729
-7.6829453 -13.838585 1.5819768
3.884367 -5.0140276 1.0155609
-2.3423791 -5.9296865 1.0929729
-7.725771 -13.825982 1.5826764
3.8836029 -5.0436878 1.016933
-2.3763642 -5.9489841 1.094772
-7.7871423 -13.843099 1.5851752
3.855185 -5.0151567 1.0154551
-2.4088206 -5.9680996 1.0965211
-7.8399611 -13.852954 1.5871241
3.8468127 -5.0256758 1.0157605
-2.4047284 -5.9318113 1.0948719
-7.9076991 -13.878473 1.5901726
3.8274257 -5.0154867 1.0148442
-2.4361432 -5.946806 1.0964211
-7.9304867 -13.838906 1.5891731
3.8055985 -4.9999413 1.0136224
-2.4615307 -5.9552531 1.0975206
-7.9829645 -13.847476 1.5910722
3.7797828 -4.9733038 1.0117896
-2.4886203 -5.9624591 1.0986201
-8.0327101 -13.843553 1.5923715
3.7762983 -4.9975586 1.0128587
-2.4966598 -5.9448538 1.0981202
-8.0939684 -13.861213 1.5949203
3.7711463 -5.0160975 1.0136224
-2.5074439 -5.9323449 1.099256
-8.1347609 -13.852422 1.5989684
3.7639213 -5.0291162 1.0140805
-2.5385699 -5.9448962 1.1007106
-8.1784334 -13.83927 1.5997208
3.7382052 -5.0055227 1.0124005
-2.5459406 -5.9264216 1.1001589
-8.2445278 -13.862709 1.6026804
3.7268724 -5.0107031 1.0124005
-2.565829 -5.9265251 1.1007608
-8.2860851 -13.854424 1.6035833
3.7171874 -5.0183163 1.0125532
-2.6056974 -5.9506464 1.102968
-8.3350019 -13.847921 1.6047871
3.6941128 -4.9998422 1.0111787
-2.6204884 -5.9423013 1.1030682
-8.3922634 -13.85813 1.6069441
3.6923432 -5.0262852 1.0124005
-2.6422112 -5.9445429 1.1038207
-8.4223881 -13.833699 1.6068437
3.667165 -4.9990683 1.0105678
-2.6505642 -5.9250946 1.1032689
-9.9498758 -15.833761 1.7362614
3.6632066 -5.0232162 1.0116369
-2.7076364 -5.9726634 1.1069809
-10.020017 -15.847428 1.73897
3.6513762 -5.0284171 1.0116369
-2.7115037 -5.9515738 1.1062285
-10.080568 -15.85714 1.7412274
3.6233785 -4.9927559 1.0093459
-2.7326634 -5.9491744 1.1067803
-8.7271519 -13.963617 1.6215413
3.6158161 -5.0087948 1.0099568
-2.7691176 -5.9681611 1.1086864
-10.248787 -15.916447 1.748852
3.6040215 -5.0138774 1.0099568
-2.7951865 -5.9753799 1.10979
-10.276564 -15.878414 1.7481496
3.5965681 -5.0266151 1.0104151
-2.8235903 -5.9832296 1.1109939
-10.320783 -15.855933 1.7486012
3.5755963 -5.0100985 1.0091932
-2.8266566 -5.9576936 1.108665
-10.374546 -15.845884 1.7460942
3.5728774 -5.036654 1.0104151
-2.8368006 -5.9437914 1.1084151
-10.413358 -15.822327 1.7463441
3.5540271 -5.0223527 1.0093459
-2.8604472 -5.9440618 1.1091647
-10.490541 -15.839252 1.7494426
3.5372567 -5.0166616 1.0087349
-2.9212661 -5.9944315 1.1131127
-10.329528 -15.554464 1.7328508
3.5270128 -5.024065 1.0088878
-2.8991117 -5.9387789 1.1101642
-10.270632 -15.406323 1.7250048
3.5160909 -5.028553 1.0088878
-2.9342511 -5.9534135 1.1118634
-10.303204 -15.367286 1.7244551
3.4938748 -5.0091791 1.0075132
-2.9424713 -5.9358058 1.1114136
-10.346628 -15.348086 1.7250547
3.4825332 -5.0137744 1.0075132
-2.9779086 -5.9538174 1.1132627
-10.368628 -15.304659 1.7240052
3.462923 -4.9964371 1.0062914
-2.9950743 -5.9451914 1.1134626
-10.442131 -15.317339 1.7268538
3.450707 -5.001318 1.0062914
-3.0129614 -5.9396715 1.1138124
-10.458118 -15.263459 1.7252047
3.4297042 -4.9813228 1.0049168
-3.0681434 -5.9816999 1.1172607
-10.517035 -15.266271 1.7272036
3.4285054 -5.0100965 1.0062914
-3.0694833 -5.9530849 1.1161612
-10.554017 -15.232765 1.7270538
3.416254 -5.0148888 1.0062914
-3.0916588 -5.9514585 1.1168108
-10.588861 -15.199574 1.7268538
3.3981116 -5.0031013 1.0053749
-3.1152267 -5.9536719 1.1176604
-10.622601 -15.170898 1.7268039
3.3851404 -5.0018301 1.0050695
-3.1578379 -5.9767966 1.1199592
-10.709169 -15.200942 1.7308018
3.3858728 -5.0391426 1.0069022
-3.1541171 -5.9432607 1.11851
-10.743291 -15.166627 1.730552
3.3708968 -5.0354424 1.0064441
-3.197644 -5.9693074 1.1209588
-10.801807 -15.167671 1.732501
3.3517148 -5.0176611 1.0052222
-3.2498231 -6.0020623 1.1239573
