# .PCD v0.7 - Point Cloud Data file format
VERSION 0.7
FIELDS x y z
SIZE 4 4 4
TYPE F F F
COUNT 1 1 1
WIDTH 1518
HEIGHT 1
VIEWPOINT 0 0 0 1 0 0 0
POINTS 1518
DATA ascii
-10.744053 -9.5085106 1.4502666
-22.511877 -18.383318 2.1304512
2.7329712 -9.4774103 1.1821887
3.6625791 -16.836313 1.5351769
-10.844225 -9.5376234 1.4547684
-22.623924 -18.377172 2.134413
2.7130811 -9.4975939 1.1830243
3.6256466 -16.863544 1.5362446
-10.878058 -9.5184717 1.4554888
-22.72809 -18.368254 2.1380143
2.6926906 -9.5069761 1.1833493
3.5864239 -16.859514 1.5358267
-10.934107 -9.5101795 1.4573345
-22.856344 -18.365902 2.1426964
2.6676507 -9.5001621 1.1828851
3.5413098 -16.846272 1.5349448
-11.006465 -9.517395 1.4602158
-23.009516 -18.388582 2.148999
2.6448705 -9.4969511 1.1826065
3.5040798 -16.872261 1.535966
-11.067824 -9.5180092 1.4625117
-23.129763 -18.389877 2.1535008
2.6214461 -9.4800129 1.1816781
3.4630189 -16.851467 1.534759
-11.16026 -9.5354843 1.4664283
-23.300238 -18.416416 2.1605687
2.596879 -9.4759998 1.1795789
3.4185114 -16.841919 1.5308673
-11.181779 -9.5026817 1.4663382
-24.35033 -19.085762 2.2179222
2.5769122 -9.505681 1.1808734
3.3798628 -16.870716 1.5320232
-11.278084 -9.5277748 1.470615
-24.496302 -19.100552 2.2237747
2.5582676 -9.5322189 1.1820292
3.3393021 -16.852524 1.5309598
-11.31145 -9.5032387 1.4712002
-24.623142 -19.09322 2.2283216
2.5331795 -9.5152473 1.1811047
3.3006124 -16.882107 1.5321618
-11.360632 -9.4899588 1.4726858
-24.723148 -19.066048 2.2313378
2.5089717 -9.505971 1.1805497
3.2578425 -16.87278 1.5315146
-11.446182 -9.5061626 1.4763324
-24.835464 -19.054878 2.2352543
2.489476 -9.5255766 1.1813819
3.2185011 -16.864967 1.5309598
-11.520922 -9.5104828 1.4792585
-24.999207 -19.072077 2.2418721
2.462853 -9.490942 1.179625
3.1726418 -16.822418 1.5287405
-11.585574 -9.5072994 1.4769835
-25.114931 -19.054518 2.2363651
2.4417212 -9.5125599 1.1805497
3.1324077 -16.837042 1.5292491
-11.637966 -9.4989691 1.4787283
-25.253124 -19.059881 2.241689
2.4223511 -9.5349369 1.1815207
3.0973434 -16.873617 1.5308211
-11.738636 -9.5184803 1.4830232
-25.396891 -19.056963 2.2470129
2.3957856 -9.5079622 1.1801337
3.0512586 -16.842537 1.5291567
-11.765609 -9.4899979 1.4832916
-25.498762 -19.031898 2.2501891
2.3740869 -9.5147705 1.1803648
3.0113864 -16.844093 1.5290642
-11.890337 -9.5309563 1.4890628
-25.670284 -19.05843 2.2573471
2.3517661 -9.5039587 1.1797638
2.9726925 -16.840557 1.5287405
-11.950479 -9.5210667 1.491076
-25.800861 -19.04434 2.2619104
2.3256526 -9.4787264 1.1784692
2.929101 -16.835382 1.5283244
-12.01613 -9.5184774 1.4934919
-25.948078 -19.048737 2.2675922
2.3051507 -9.4999561 1.1793939
2.8886423 -16.828863 1.5278621
-12.051121 -9.496623 1.4942524
-26.039637 -19.018404 2.2702765
2.2879205 -9.5532093 1.1809525
2.8525949 -16.858187 1.5275161
-12.159018 -9.5183163 1.4989052
-26.215759 -19.033384 2.2773449
2.2609344 -9.515151 1.1790608
2.8080773 -16.840048 1.5265011
-12.225687 -9.5154572 1.5013658
-26.350506 -19.027319 2.282311
2.2407663 -9.5440197 1.1803527
2.7683811 -16.842964 1.5265011
-12.239666 -9.4789 1.5009631
-26.458462 -19.006565 2.2858901
2.2195144 -9.5465088 1.1803989
2.7292442 -16.831079 1.5258089
-12.292725 -9.4627075 1.5025737
-26.63924 -19.022236 2.2931824
2.1937542 -9.5218792 1.1791531
2.6873803 -16.848621 1.5265011
-12.34491 -9.4476309 1.5041842
-26.794899 -19.024181 2.2991772
2.1701465 -9.5146408 1.1787379
2.6454444 -16.841618 1.5260396
-12.378242 -9.4237442 1.5048554
-26.912937 -19.008371 2.303293
2.149261 -9.5218363 1.1790147
2.6070895 -16.840153 1.5258551
-12.463684 -9.4301281 1.5131125
-27.072609 -19.011541 2.3193491
2.124233 -9.4901438 1.1774459
2.5639338 -16.811525 1.5243785
-12.553512 -9.4389286 1.516804
-27.187908 -18.984961 2.3231306
2.1016083 -9.4973364 1.1777227
2.5224981 -16.810053 1.524194
-12.60734 -9.4277496 1.5186048
-27.410137 -19.035149 2.3329897
2.0787826 -9.4693127 1.1763384
2.4816608 -16.761551 1.5217947
-12.695792 -9.4329205 1.5221612
-27.51849 -18.998793 2.3362761
2.0549932 -9.4705963 1.1763384
-12.763721 -9.4283152 1.5246823
-27.669233 -18.997107 2.3420832
2.030956 -9.4317865 1.1744467
-12.849743 -9.4368925 1.5282388
-27.808472 -18.991318 2.3473506
2.0131664 -9.5010242 1.1776766
2.3651891 -16.843746 1.5253937
-12.896523 -9.4142904 1.5294993
-27.96393 -18.983303 2.3532028
1.9916816 -9.554759 1.1801682
2.3219995 -16.838928 1.5250707
-13.06689 -9.4734735 1.5376025
-28.106054 -18.974045 2.358515
1.9680247 -9.5225639 1.1794864
2.2823052 -16.840603 1.52666
-13.078153 -9.4336414 1.5370624
1.947192 -9.534173 1.1799949
2.2432857 -16.819778 1.5255966
-13.192867 -9.4526701 1.5420144
-28.443764 -18.982986 2.3719306
1.9229004 -9.5263433 1.1795789
2.2009873 -16.83511 1.5262439
-13.369804 -9.5136652 1.5504328
-28.603729 -18.982677 2.3781881
1.9012232 -9.5408077 1.1802261
2.1611304 -16.831697 1.5260127
-13.453298 -9.5178442 1.5538092
-28.80024 -19.008217 2.3865166
1.8789701 -9.5132694 1.1788853
2.1218739 -16.797915 1.5243483
-13.500495 -9.4933414 1.5550697
-28.940096 -18.985855 2.3914685
1.8544378 -9.4935608 1.1779144
2.0796232 -16.815861 1.5251343
-13.606709 -9.5067387 1.5595715
-29.139835 -19.003481 2.3997521
1.8313873 -9.491313 1.1777757
2.0378494 -16.797575 1.5242095
-13.689082 -9.5110693 1.5543652
-29.302628 -19.009743 2.3889813
1.8121161 -9.5318451 1.1796713
2.002214 -16.828793 1.5256429
-13.780609 -9.5125437 1.5579739
-29.538059 -19.042961 2.3989606
1.7881875 -9.5334148 1.1797175
1.9593496 -16.828878 1.5255966
-13.869682 -9.5140781 1.5614934
-29.734442 -19.055466 2.4069352
1.7647514 -9.5163717 1.1788853
1.9179325 -16.821993 1.5252267
-13.992245 -9.5392303 1.566884
-30.006165 -19.12022 2.4190977
1.7432253 -9.5021629 1.1781919
1.8793945 -16.79739 1.5240246
-14.043896 -9.5154839 1.5683541
-30.490885 -19.297852 2.4422641
1.7196023 -9.5181837 1.1789316
1.8372488 -16.83617 1.5258278
-14.15505 -9.5307856 1.5730766
-30.655664 -19.291584 2.4485903
1.6976464 -9.5321684 1.1795789
1.7972713 -16.815302 1.5248106
-14.197372 -9.5070448 1.5741904
-30.853249 -19.308025 2.456743
1.6763577 -9.5325603 1.1769174
1.7593141 -16.823807 1.5204217
-14.336634 -9.5337925 1.5802939
-31.151711 -19.369938 2.4699302
1.6522937 -9.5201206 1.1763201
1.7164283 -16.81741 1.5201001
-14.396777 -9.5178194 1.5822986
-31.856005 -19.674681 2.5047245
1.630146 -9.5202904 1.1763201
1.6769638 -16.845024 1.5213869
-14.47969 -9.5168238 1.5855508
-32.013748 -19.663292 2.5106943
1.6088362 -9.5086956 1.1757686
1.6387324 -16.816936 1.5200541
-14.592402 -9.5264301 1.5902287
-32.188183 -19.647907 2.5172431
1.5849457 -9.5087624 1.1757686
1.5959287 -16.819983 1.520192
-14.636598 -9.5003643 1.591387
-32.359047 -19.638248 2.5237923
1.5628626 -9.465848 1.1737466
1.5562901 -16.811214 1.5197785
-14.767208 -9.5253811 1.5971341
-32.551941 -19.644653 2.5315886
1.5417202 -9.4677553 1.1738385
1.5183363 -16.7848 1.5185378
-14.834459 -9.5076637 1.5994062
-32.760811 -19.646179 2.5399196
1.5174909 -9.5447102 1.1774689
1.4755049 -16.803141 1.5194108
-14.939069 -9.5148096 1.6037276
-32.907528 -19.620369 2.5451765
1.4957709 -9.4850531 1.1746657
1.4359899 -16.792135 1.5189054
-15.043808 -9.5215034 1.608049
-33.110512 -19.625391 2.5533741
1.4739137 -9.4653378 1.1737466
1.3964019 -16.79274 1.5189513
-15.123983 -9.5119305 1.6110339
-33.315575 -19.626215 2.5615714
1.4508386 -9.4787226 1.17439
1.3551116 -16.802008 1.5194108
-15.261417 -9.5336342 1.6170037
-33.517441 -19.624252 2.5695906
1.4281216 -9.4647388 1.1737466
1.3142476 -16.780933 1.5184457
-15.339147 -9.5259981 1.6199441
-33.688438 -19.613117 2.576184
1.4061337 -9.5121765 1.1759983
1.2755995 -16.818338 1.5202379
-15.42213 -9.516674 1.6230626
-33.904373 -19.61697 2.5849159
1.3828621 -9.524416 1.1765957
1.2342558 -16.8234 1.5205138
-15.535175 -9.5232925 1.6277405
-34.07254 -19.593784 2.5911531
1.1923738 -16.850641 1.5250245
-15.60023 -9.5076599 1.6300126
-34.27401 -19.59668 2.5993059
1.339262 -9.4950447 1.1770306
1.1545649 -16.837048 1.5244248
-15.734139 -9.5223637 1.6357151
-35.872757 -20.335548 2.6795866
1.1121931 -16.818361 1.5235941
-15.832038 -9.5213928 1.6396356
-36.062778 -20.321653 2.6869376
1.2922058 -9.5308237 1.1787839
1.0725832 -16.81624 1.5235481
-15.925693 -9.5198526 1.6433779
-36.275146 -20.323395 2.6955359
1.2719007 -9.4999342 1.1773536
1.0336494 -16.84235 1.52484
-16.047981 -9.5265398 1.6484567
-36.514206 -20.324257 2.7052033
1.2475224 -9.513752 1.1780457
0.99128962 -16.826279 1.5241479
-16.16864 -9.536047 1.6535355
-36.659821 -20.284225 2.7102375
1.226522 -9.4827318 1.1766154
0.95123005 -16.835564 1.5246555
-16.154255 -9.4766865 1.6574445
1.2022471 -9.5598907 1.1803067
0.91364098 -16.821423 1.5240556
-16.213579 -9.4492912 1.6592827
-37.130959 -20.290939 2.742007
1.1805377 -9.5043278 1.1777227
0.87016439 -16.835258 1.5247939
-16.448029 -9.5162182 1.6702664
-37.312416 -20.267035 2.7489111
0.83004808 -16.843277 1.5252552
-16.457136 -9.468605 1.6696386
-37.499012 -20.24968 2.7561738
1.1386275 -9.4721842 1.1762924
0.79349613 -16.808399 1.5236864
-16.510487 -9.4370689 1.671163
-37.739292 -20.244629 2.7659023
1.1136246 -9.4953909 1.1774459
0.74718285 -16.877451 1.5270548
-16.619495 -9.4356813 1.6756012
-37.983982 -20.245342 2.7759445
1.0902982 -9.5010414 1.1777688
0.70774221 -16.838329 1.5253015
-16.714649 -9.4311676 1.6794119
-38.171928 -20.225836 2.783252
1.0659533 -9.5573778 1.1804912
0.66837168 -16.859674 1.5264088
-16.821234 -9.4275475 1.6837158
-38.417915 -20.224974 2.793339
1.0453691 -9.5114584 1.1748227
0.62686205 -16.860596 1.5201783
-17.001297 -9.4599133 1.6917855
-38.666759 -20.224308 2.8035605
1.0228219 -9.5023289 1.1744566
0.58622742 -16.846504 1.5196291
-17.122139 -9.4665108 1.6968963
-38.854294 -20.201763 2.8108232
0.99763441 -9.5653019 1.1774771
0.54823112 -16.842247 1.5195376
-17.286919 -9.4874001 1.7041141
-39.12561 -20.205042 2.8220761
0.978549 -9.4868832 1.1738616
0.50229168 -16.887245 1.5217803
-17.466818 -9.5192652 1.7121837
-39.368835 -20.202921 2.8320735
0.95563793 -9.4980888 1.1744566
0.45852518 -16.944008 1.5245719
-17.552162 -9.5066099 1.7154565
-39.620903 -20.208801 2.8426087
0.93301678 -9.5170841 1.1754177
0.42502451 -16.871334 1.5212767
-17.718426 -9.5257826 1.7227192
-39.879833 -20.202143 2.853189
0.38026524 -16.893612 1.5224667
-17.84132 -9.5278568 1.7175362
-40.107933 -20.18922 2.8402069
0.88610792 -9.5254631 1.1759669
0.3423214 -16.865416 1.5212767
-17.981525 -9.5398693 1.7235253
-40.40033 -20.210762 2.8526287
0.86595011 -9.5092726 1.1752803
0.29977798 -16.919931 1.523977
-18.114857 -9.5410461 1.7290266
-40.719963 -20.228931 2.8661153
0.84398222 -9.4831047 1.1741362
0.25732183 -16.908806 1.5236108
-18.275682 -9.5590744 1.7359916
-41.093521 -20.280701 2.8824856
0.82168722 -9.4842529 1.1742735
0.21390581 -16.949362 1.5256703
-18.586073 -9.6484842 1.7504985
-41.510727 -20.355968 2.9011183
0.80156851 -9.4698677 1.1736785
0.17579746 -16.943277 1.525533
-18.583775 -9.5840721 1.7491677
-42.848457 -20.841034 2.965579
0.77744579 -9.4717331 1.1738616
0.13023472 -16.967794 1.5268602
-18.633549 -9.5461636 1.7504985
-43.153915 -20.847549 2.9783113
0.75418997 -9.4736118 1.1740446
0.092698097 -16.918482 1.5247092
-18.724054 -9.5314417 1.7539589
-43.36615 -20.820257 2.986563
0.73242521 -9.478425 1.1761363
0.04885006 -16.976088 1.5308074
-18.885632 -9.543972 1.7608798
-43.662338 -20.819815 2.9988074
0.70567656 -9.5170975 1.1780663
0.002140522 -17.02663 1.5333807
-18.929173 -9.5023012 1.7618999
0.68489456 -9.4916077 1.1769633
-0.038572311 -17.011986 1.5328753
-18.923702 -9.4432144 1.7605691
-44.261395 -20.82806 3.0237844
0.662745 -9.4992514 1.1774229
-0.068173409 -16.917955 1.5286016
-19.264578 -9.5341587 1.776407
-44.504959 -20.799753 3.0333669
0.64123678 -9.4824009 1.1767336
-0.1145463 -16.962345 1.5308993
-19.386639 -9.5261917 1.7813313
-44.762047 -20.776279 3.0436149
0.6121707 -9.5392427 1.1795368
-0.15843725 -16.980408 1.5319562
-19.502548 -9.5197372 1.7860339
-45.010902 -20.758604 3.0536411
0.59435987 -9.5040302 1.1779743
-0.19912004 -16.997726 1.5329672
-19.649338 -9.5190277 1.8032365
-45.346119 -20.761574 3.0922303
0.5735364 -9.4733467 1.1766417
-0.24923038 -17.056124 1.5359542
-19.79137 -9.5203562 1.8092439
-45.642071 -20.756504 3.1046038
0.54859972 -9.4971066 1.1778824
-0.30384636 -17.181629 1.542112
-19.920101 -9.5176935 1.8146236
-47.495476 -21.428112 3.1950288
0.52816296 -9.4879436 1.1775608
-0.38060617 -17.511673 1.557966
-20.075804 -9.5186672 1.821214
-47.871094 -21.438793 3.2110784
0.50118589 -9.5123453 1.1788476
-0.42161369 -17.475555 1.5564955
-20.098845 -9.4672451 1.8212588
-48.159561 -21.421656 3.2229588
0.48433208 -9.4651928 1.1767336
-0.46316671 -17.473637 1.5566335
-20.202635 -9.452445 1.8253832
-48.445305 -21.407669 3.2347944
0.45817518 -9.5043116 1.1787096
-0.50564528 -17.493122 1.5577822
-20.359474 -9.4521046 1.8320181
-48.782288 -21.396917 3.2488713
0.43609047 -9.4868774 1.1780202
-0.54888391 -17.477039 1.5572767
-20.511093 -9.4537334 1.838474
-49.122696 -21.397282 3.2633071
0.41304159 -9.4919567 1.1766076
-0.59242868 -17.490452 1.5548238
-20.704315 -9.4743824 1.8470368
-49.438843 -21.391672 3.2766221
0.38936949 -9.5086203 1.1775229
-0.63512135 -17.509619 1.5559679
-20.960842 -9.5126209 1.8586032
-49.780247 -21.377773 3.2908785
0.36497879 -9.5093985 1.177706
-0.67870331 -17.496111 1.5556018
-21.110268 -9.5082178 1.8648796
-50.063 -21.34395 3.3023105
0.34249067 -9.5024958 1.1775229
-0.71980953 -17.476913 1.554961
-21.302328 -9.5254803 1.8733528
-50.444008 -21.360268 3.3188086
0.31799698 -9.5238113 1.1786671
-0.76356506 -17.502527 1.5564256
-21.469223 -9.5265465 1.880481
-50.822166 -21.361979 3.3349478
0.2962923 -9.5109959 1.1782094
-0.80622292 -17.494724 1.556334
-21.620571 -9.5205603 1.8724599
-51.254578 -21.383524 3.3209834
0.27111149 -9.5232449 1.1789417
-0.85021496 -17.496471 1.5567002
-21.766933 -9.5170193 1.8785691
-51.615799 -21.386381 3.3362565
0.2516408 -9.5076752 1.1783468
-0.88940907 -17.487957 1.5565629
-21.940559 -9.5157804 1.8858738
-52.624954 -21.625496 3.382829
0.22635221 -9.5138826 1.1788044
-0.93380547 -17.480566 1.5565171
-21.960875 -9.4587955 1.8857851
-54.107513 -22.056622 3.4525988
0.20736694 -9.4894028 1.1777976
-0.97473907 -17.472582 1.5564256
-22.244726 -9.5069904 1.8985794
-54.353901 -22.004986 3.4621613
0.18414783 -9.4997463 1.1784383
-1.019227 -17.499477 1.5579816
-22.432404 -9.5086975 1.906548
-54.717606 -21.979071 3.4771247
0.15261078 -9.5462656 1.1808181
-1.0645313 -17.497534 1.5582105
-22.633957 -9.5200596 1.9152691
-55.134773 -21.984278 3.4948771
0.13819933 -9.4927168 1.1784383
-1.1014442 -17.463215 1.5568832
-22.802902 -9.5206928 1.922441
-55.511002 -21.978148 3.5107257
0.1161046 -9.4950943 1.1805018
-1.1423216 -17.465538 1.5606314
-22.977385 -9.5145836 1.9297457
-55.901047 -21.956644 3.5269287
0.088543892 -9.5144119 1.1816047
-1.1884985 -17.469049 1.5611368
-23.173054 -9.5209322 1.9381568
-56.330132 -21.960463 3.5452123
0.069866657 -9.4896507 1.1805937
-1.2295351 -17.461424 1.5610909
-23.383549 -9.5345736 1.9473209
-56.667892 -21.934565 3.5591574
0.043268681 -9.5188932 1.1821561
-1.2739954 -17.484768 1.5625155
-23.596901 -9.5400686 1.9564848
-59.08741 -22.657442 3.6735077
0.016124249 -9.5341482 1.1830752
-1.3175535 -17.471577 1.5622398
-23.794933 -9.5443382 1.9649847
-59.517353 -22.650187 3.6917026
-0.0022821426 -9.5082779 1.1820183
-1.3595705 -17.469412 1.5624695
-23.958321 -9.5378056 1.9718466
-59.874878 -22.621193 3.7064888
-0.022681713 -9.4998274 1.1817886
-1.3949623 -17.438591 1.5613207
-24.054638 -9.4979525 1.9779518
-60.327744 -22.604965 3.7318752
-0.052783012 -9.5312195 1.1834888
-1.4496565 -17.489464 1.5641239
-24.155657 -9.4621429 1.9817228
-60.734985 -22.576811 3.7488666
-0.076010227 -9.5281029 1.1835347
-1.4910059 -17.473234 1.5637102
-24.32934 -9.4573259 1.9890871
-61.219067 -22.587564 3.7697618
-0.09867239 -9.5319691 1.1839024
-1.5296946 -17.461346 1.5634805
-24.483707 -9.4364786 1.9953868
-61.686951 -22.569904 3.7895482
-0.11927748 -9.5093851 1.1830293
-1.5767946 -17.467653 1.5641699
-24.711876 -9.4463568 2.0053244
-62.110371 -22.547989 3.8073823
-0.14566755 -9.5283251 1.1841321
-1.6197643 -17.46965 1.5646293
-24.944885 -9.4596596 2.015528
-63.527061 -22.876369 3.8731294
-0.17126942 -9.5473585 1.185235
-1.6632729 -17.483353 1.5656403
-25.213947 -9.4756975 2.0273287
-0.19543648 -9.5437756 1.185281
-1.709075 -17.481632 1.5659621
-25.29966 -9.4333715 2.0303898
-65.676132 -23.248793 3.9710405
-0.21693563 -9.5358925 1.1805781
-1.7511091 -17.477936 1.5577493
-25.717922 -9.5065098 2.0494664
-66.060493 -23.206717 3.9869671
-0.24047565 -9.5432415 1.181124
-1.7878666 -17.455889 1.5570669
-25.979387 -9.5159597 2.0608678
-66.574554 -23.184849 4.0087943
-0.25951719 -9.5136423 1.1799413
-1.8345928 -17.458618 1.5576127
-26.170837 -9.506566 2.0689864
-67.045708 -23.160639 4.028758
-0.28183603 -9.5101852 1.1799867
-1.8753729 -17.448492 1.5575218
-26.372625 -9.5026693 2.0776372
-69.686409 -23.860756 4.1527548
-0.30326414 -9.5068521 1.1800323
-1.9179764 -17.455812 1.5582495
-26.663387 -9.5181313 2.090414
-70.288528 -23.854197 4.1786633
-0.33284616 -9.5296783 1.1813514
-1.9697037 -17.482075 1.5599325
-26.918318 -9.5264244 2.1015494
-70.754852 -23.815636 4.1982718
-0.35401678 -9.5203133 1.181124
-2.0129137 -17.483088 1.5603874
-27.113152 -9.517086 2.1098454
-71.296181 -23.80686 4.2215629
-0.37728548 -9.525404 1.1815788
-2.0474596 -17.450933 1.5592502
-27.393436 -9.5251122 2.1220899
-71.891083 -23.789513 4.2470722
-0.39999008 -9.5146046 1.1813059
-2.0953588 -17.457727 1.5600235
-27.567074 -9.5008593 2.1292768
-72.444138 -23.763622 4.2706738
-0.4221797 -9.5058498 1.181124
-2.1371365 -17.443766 1.5597961
-27.819942 -9.5069361 2.1403234
-0.44944143 -9.5288773 1.182443
-2.186615 -17.480934 1.5619794
-28.119461 -9.5201864 2.1534994
-0.47649145 -9.5419092 1.1833073
-2.2309551 -17.478182 1.5622978
-28.302748 -9.4959173 2.16113
-0.49488878 -9.5158329 1.1823065
-2.2689161 -17.446754 1.5612516
-28.355637 -9.4369974 2.1626384
-0.51484394 -9.5053453 1.1820337
-2.3077612 -17.43502 1.5611151
-28.667686 -9.4474106 2.1763468
-0.5332787 -9.4761429 1.1808965
-2.3569431 -17.445843 1.5621159
-28.983822 -9.4638138 2.1903214
-0.56476879 -9.511939 1.1828524
-2.3996153 -17.443029 1.5624342
-29.400261 -9.5119228 2.2090874
-0.5953331 -9.546896 1.1847628
-2.4446487 -17.457596 1.5635715
-29.693489 -9.5117054 2.221864
-0.60135293 -9.465312 1.181124
-2.4967346 -17.47942 1.565118
-29.981401 -9.5149736 2.2344635
-0.63538361 -9.5103636 1.1835346
-2.532506 -17.44685 1.5640264
-30.249889 -9.5145082 2.2461755
-2.5768032 -17.457275 1.5649815
-30.515577 -9.5020132 2.2576213
-0.69044185 -9.5402136 1.1854906
-2.6312065 -17.48723 1.5669374
-30.837933 -9.5110693 2.2685902
-0.71169686 -9.5309772 1.1853087
-2.6640263 -17.443012 1.5652999
-31.101295 -9.5052309 2.2800121
-0.73368502 -9.5285406 1.1854451
-2.7086945 -17.454046 1.5663006
-31.420998 -9.5037947 2.2939572
-2.7588577 -17.465612 1.5673922
-31.421394 -9.4153671 2.2928946
-0.77463388 -9.4930763 1.1843079
-2.7975931 -17.438696 1.5666189
-32.033073 -9.505765 2.3207407
-0.80198431 -9.5152807 1.185627
-2.8412466 -17.451696 1.5677106
-32.266785 -9.4761333 2.3306129
-0.83176851 -9.5317669 1.1867187
-2.8866634 -17.443993 1.5678926
-32.471432 -9.4409828 2.3391571
-0.85977507 -9.5446205 1.1876285
-2.9333954 -17.447926 1.5686204
-32.789326 -9.4422064 2.3531022
-85.218781 -23.479858 4.816124
-0.86984921 -9.4965677 1.1855816
-2.969141 -17.42337 1.5679381
-33.31945 -9.4911184 2.3769197
-0.92533565 -9.6120205 1.1914493
-3.0189199 -17.438387 1.5692117
-33.74057 -9.5087185 2.3956017
-0.92467308 -9.5172453 1.1871736
-3.0733805 -17.470211 1.5713041
-34.075241 -9.5090275 2.4102995
-0.95823884 -9.556653 1.1893569
-3.1072774 -17.438772 1.5703034
-34.459999 -9.5096645 2.4272108
-0.96333432 -9.4814186 1.1860365
-3.1501255 -17.420961 1.5700305
-34.534073 -9.4366236 2.4296455
-39.749794 -10.764727 2.6738846
-0.98433733 -9.4715586 1.1858544
-35.095238 -9.4898386 2.4549239
-39.751167 -10.663997 2.6728222
-1.0041635 -9.4609575 1.185627
-35.546867 -9.5017223 2.4749341
-39.80732 -10.564425 2.6741946
-1.0332389 -9.473033 1.1865368
-3.2897854 -17.438665 1.5725777
-35.907047 -9.4963179 2.4907386
-1.0625055 -9.4920883 1.1877649
-3.3300953 -17.424154 1.5724412
-36.309174 -9.5032835 2.5085351
-1.101265 -9.5469284 1.1907215
-3.376019 -17.435326 1.5735328
-36.708496 -9.4960775 2.5260663
-1.1260629 -9.5427904 1.1908579
-3.4217739 -17.427147 1.5737603
-37.116695 -9.4967632 2.5440843
-1.1416588 -9.5138369 1.1897663
-3.4691839 -17.436657 1.5748065
-37.503349 -9.4943447 2.5611284
-1.1684403 -9.5262756 1.190676
-3.5116954 -17.435301 1.5753069
-37.639225 -9.4195108 2.5663521
-1.1800435 -9.4779501 1.1905155
-3.5468168 -17.391092 1.5772305
-38.075394 -9.4175158 2.5856097
-1.2119818 -9.500947 1.1919771
-3.5996027 -17.411903 1.5788748
-38.596573 -9.4408932 2.608896
-1.2377367 -9.5094509 1.1927079
-3.6344647 -17.385027 1.578144
-39.195 -9.4711399 2.6356795
-1.2736201 -9.544384 1.1947632
-3.693408 -17.425152 1.5807474
-39.830956 -9.5067663 2.6641896
-221.42116 -50.131821 11.108347
-1.2860253 -9.5027876 1.1930733
-3.7300682 -17.392406 1.5797882
-40.192181 -9.4868336 2.6799941
-221.07907 -49.517738 11.087142
-1.311892 -9.5110865 1.193804
-3.7775717 -17.406235 1.5810671
-40.57143 -9.4565125 2.6965067
-1.3375378 -9.5091743 1.1940781
-3.82658 -17.407221 1.5817978
-41.129261 -9.4713802 2.7213867
-220.21387 -48.167915 11.0357
-1.3782632 -9.5607471 1.1969554
-3.8829784 -17.442577 1.5841728
-41.614014 -9.4722748 2.742902
-219.72348 -47.529358 11.007854
-1.39604 -9.5427885 1.1964074
-3.9150162 -17.406757 1.5830309
-42.181824 -9.4753571 2.768136
-219.39169 -46.860825 10.986825
-1.4323072 -9.5731335 1.19828
-3.9626312 -17.402708 1.5835334
-42.732883 -9.4808636 2.7926619
-1.446414 -9.5408659 1.1970469
-4.0157456 -17.426497 1.5853603
-43.235561 -9.4782314 2.8149741
-1.4598031 -9.5098019 1.1958593
-4.0506196 -17.399693 1.5846753
-43.529835 -9.417347 2.8275025
-1.4692693 -9.4584026 1.1937127
-4.0844874 -17.353598 1.5831224
-44.241268 -9.4478512 2.8594215
-217.82503 -44.316177 10.893902
-1.4977479 -9.4705191 1.1946719
-4.1380615 -17.37793 1.584995
-44.862274 -9.4615993 2.8871789
-49.74147 -10.430023 3.1129131
-1.5310478 -9.4995737 1.1945878
-4.1780634 -17.366751 1.5816294
-45.548458 -9.471199 2.9178138
-49.544567 -10.253601 3.102598
-1.5655618 -9.5229206 1.1961343
-4.2376356 -17.397076 1.5838583
-46.145996 -9.464859 2.944376
-49.65554 -10.142918 3.1065824
-1.5775402 -9.482769 1.1945424
-4.2742853 -17.365005 1.582994
-46.673103 -9.4564915 2.9677951
-1.6045008 -9.4951725 1.1954975
-4.327837 -17.39819 1.5852683
-47.425392 -9.4688473 3.0014405
-217.07112 -41.402313 10.835067
-1.6389115 -9.5173283 1.1969986
-4.3718095 -17.381939 1.5852228
-48.11483 -9.4705601 3.0322082
-1.6683779 -9.5277119 1.1979083
-4.4250641 -17.397455 1.5867238
-48.629128 -9.4467049 3.0549631
-1.6782875 -9.4880362 1.1963162
-4.4715772 -17.403851 1.5877246
-49.511978 -9.4770699 3.0746951
-1.7071152 -9.4964523 1.1971351
-4.5168595 -17.396088 1.5880885
-49.889221 -9.4129524 3.0908928
-218.04214 -39.365837 10.776056
-1.7379804 -9.5102901 1.1982267
-4.5532522 -17.363411 1.5872242
-50.998795 -9.4859505 3.1406271
-217.78374 -38.799362 10.760166
-1.7628551 -9.5127439 1.1987271
-4.6064606 -17.387812 1.5891347
-51.783852 -9.4817314 3.1753929
-217.26178 -38.124054 10.731809
-1.7807384 -9.4875841 1.1979083
-4.6440516 -17.35343 1.5882249
-52.66748 -9.5009403 3.2147238
-1.8155613 -9.5143261 1.1996368
-4.7071228 -17.398928 1.5912271
-53.046501 -9.4364338 3.2310531
-1.8415327 -9.5193205 1.2002736
-4.7478495 -17.388098 1.591409
-54.241405 -9.4890976 3.2844748
-1.8674803 -9.5159388 1.2005465
-4.7931366 -17.374426 1.5915453
-55.348511 -9.5324249 3.3339458
-1.8889544 -9.5059271 1.1985661
-4.8286681 -17.344662 1.587323
-55.833012 -9.4760189 3.3550599
-1.9060388 -9.4869909 1.1980225
-4.8837705 -17.37187 1.5894067
-57.070839 -9.5194721 3.4103689
-214.96704 -34.485344 10.603193
-1.9392297 -9.5025749 1.1992456
-4.9370155 -17.378809 1.5905844
-57.915138 -9.507 3.4478123
-214.67252 -33.907837 10.586074
-1.9609761 -9.4932241 1.1992003
-4.9647112 -17.328547 1.5888631
-58.904438 -9.5186253 3.4918842
-214.35692 -33.350128 10.568208
-1.9909492 -9.5078239 1.2003328
-5.0200825 -17.355328 1.5909468
-59.749168 -9.4858379 3.5292397
-2.020483 -9.5131187 1.2010576
-5.0692124 -17.350937 1.591581
-60.759228 -9.4792862 3.5741456
-70.282326 -10.889723 4.0073128
-2.0484707 -9.5168533 1.2016917
-5.1242027 -17.366121 1.5931665
-61.83931 -9.4902992 3.6222997
-70.27475 -10.719822 4.0058641
-2.0715055 -9.5130377 1.2019182
-5.1602774 -17.342503 1.5927588
-62.314091 -9.3970413 3.642843
-70.254265 -10.53417 4.0037575
-2.0930691 -9.5003023 1.201737
-5.2146783 -17.355587 1.5942537
-63.332703 -9.3779869 3.6880999
-2.1164041 -9.4920454 1.2017823
-5.26266 -17.352203 1.5949332
-64.822403 -9.4319019 3.754822
-218.64406 -30.709007 10.741949
-2.1565509 -9.5305872 1.2041379
-5.3103104 -17.357244 1.595975
-219.28961 -30.215973 10.767715
-2.167275 -9.4883671 1.2025071
-5.356329 -17.343893 1.5962015
-67.316818 -9.4273911 3.8660111
-2.1967182 -9.4974403 1.2034131
-5.4020071 -17.338978 1.5967903
-68.076782 -9.3657074 3.8995478
-2.2216296 -9.4977674 1.2038661
-5.4560885 -17.358974 1.5986023
-221.56122 -28.870369 10.861127
-2.2533221 -9.5068426 1.2048174
-5.5036378 -17.348837 1.59901
-70.886749 -9.3665771 4.0249591
-222.34157 -28.425232 10.893435
-2.2649088 -9.4724436 1.203549
-5.5351377 -17.309324 1.5978775
-222.86572 -27.966835 10.914285
-2.3174036 -9.5382442 1.2073088
-5.6022568 -17.359486 1.6012297
-2.3193121 -9.476037 1.2046815
-5.638463 -17.321991 1.6002784
-2.3451657 -9.4756613 1.2051345
-5.6850243 -17.318127 1.6009579
-2.3782277 -9.494422 1.2065387
-5.7388115 -17.335455 1.6026793
-77.150635 -9.1831036 4.3038316
-225.90366 -26.06459 11.03996
-2.4055471 -9.4922295 1.2069464
-5.7918301 -17.337076 1.6037211
-226.66928 -25.575478 11.115853
-2.4510512 -9.5341787 1.2095737
-5.8529897 -17.361612 1.6058955
-79.901642 -9.1001472 4.442183
-227.53775 -25.138435 11.152707
-2.4688168 -9.5168543 1.209166
-5.8950114 -17.350742 1.6062126
-2.4808216 -9.4817572 1.2078977
-5.8876162 -17.218695 1.6004596
-83.033424 -9.0140495 4.5825
-2.5001893 -9.463603 1.20749
-5.9839783 -17.322227 1.6066656
-229.85706 -23.68586 11.250087
-2.5348217 -9.4844999 1.2090302
-6.0418491 -17.346668 1.6087947
-86.175331 -8.9148026 4.7233019
-2.5549564 -9.468008 1.2087131
-6.0943599 -17.349888 1.6099272
-100.97746 -10.118561 5.3942924
-2.5722218 -9.4452505 1.2080789
-6.117197 -17.28717 1.6077075
-101.02708 -9.8852348 5.3955269
-2.6122828 -9.4774265 1.2102079
-6.1809468 -17.323601 1.6104708
-89.197113 -8.5374031 4.8576236
-2.6186123 -9.4284296 1.2082601
-6.2286959 -17.311459 1.6108785
-233.84991 -21.175529 11.41897
-2.6437945 -9.4254475 1.2086225
-6.279295 -17.313978 1.6119657
-92.120682 -8.3609123 4.9885063
-2.6709826 -9.4290009 1.2093019
-6.3217535 -17.302952 1.6123281
-2.7082686 -9.4471598 1.2107968
-6.3884869 -17.331079 1.6148195
-95.154747 -8.1381454 5.1242828
-2.7198606 -9.4148026 1.2096643
-6.414403 -17.280167 1.6131887
-2.758373 -9.4419489 1.2115669
-6.4851732 -17.328777 1.6166314
-98.185066 -7.8946533 5.2407069
-2.7816563 -9.4298296 1.2115216
-6.5338893 -17.317558 1.6171297
-2.8002391 -9.4101524 1.2110686
-6.5674877 -17.278822 1.6161784
-101.3541 -7.6514969 5.3820968
-2.8351736 -9.4312534 1.2126541
-6.6231499 -17.29863 1.6181263
-2.8703358 -9.4435186 1.2138772
-6.6778145 -17.299309 1.6192588
-2.8871772 -9.4201441 1.213243
-6.7351809 -17.30938 1.6208442
-104.28859 -7.0776978 5.512073
-2.9081974 -9.4098616 1.213243
-6.7747722 -17.291096 1.6208895
-2.9244244 -9.3854656 1.2145107
-6.8088717 -17.253469 1.6236587
-107.19612 -6.7210693 5.6416545
-2.9748859 -9.4301434 1.2174219
-6.8802361 -17.291061 1.6267061
-107.14155 -6.4669266 5.6385379
-2.9911325 -9.4100609 1.2169216
-6.9254603 -17.283787 1.6273429
-3.0340364 -9.4365664 1.2189229
-6.9852276 -17.29311 1.6289805
-110.31216 -6.0889626 5.7800593
-3.06654 -9.446393 1.2200146
-7.0396328 -17.299536 1.6303906
-131.06172 -6.8655968 6.7142572
-3.0685973 -9.3983126 1.2180587
-7.0690398 -17.260551 1.6293899
-113.36319 -5.6849823 5.9162688
-3.1028571 -9.4071093 1.2191503
-7.1267495 -17.265045 1.6308
-113.30862 -5.4065819 5.91324
-3.1238275 -9.3941469 1.2190593
-7.1745834 -17.258024 1.6315277
-113.35429 -5.1437836 5.9147763
-3.1609399 -9.4145021 1.2206969
-7.231576 -17.272503 1.6333472
-3.1953926 -9.4229822 1.2217885
-7.2904139 -17.278204 1.6348482
-3.2172937 -9.4115314 1.2217885
-7.3388329 -17.271605 1.6356215
-3.2492137 -9.4211998 1.2228802
-7.3961067 -17.285572 1.6374409
-3.2801764 -9.4224787 1.223608
-7.4446697 -17.27092 1.6378958
-3.3112206 -9.4258471 1.2244267
-7.4998589 -17.27249 1.6391695
-3.3208704 -9.3933849 1.2163479
-7.5433693 -17.259834 1.6266453
-3.3718474 -9.4335232 1.2190826
-7.6134787 -17.288567 1.6293352
-3.3937185 -9.4194593 1.2189929
-7.6600409 -17.273336 1.6297388
-3.4067862 -9.3934565 1.2182308
-7.70052 -17.254618 1.6298733
-3.4468694 -9.4126539 1.2198896
-7.7625341 -17.267361 1.6317561
-3.4771702 -9.4137793 1.2206069
-7.8308048 -17.291002 1.6342218
-3.4953303 -9.3970222 1.2203379
-7.8523893 -17.237774 1.6325631
-3.5593789 -9.4562531 1.2241485
-7.9329123 -17.278889 1.6360152
-3.5684507 -9.4209709 1.2229381
-7.9721947 -17.25351 1.6358807
-3.6077127 -9.4413919 1.2246417
-8.0241861 -17.254435 1.6370912
-3.6251416 -9.4169312 1.2240589
-8.0782213 -17.247347 1.6380326
-161.74307 -0.42121124 8.0716753
-3.6610713 -9.4290085 1.225359
-8.1377506 -17.257196 1.639781
-3.7093382 -9.4643059 1.2278695
-8.1947794 -17.266104 1.6414397
-3.7448177 -9.4708748 1.2289455
-8.2655811 -17.287214 1.6439054
-3.7598712 -9.4461374 1.2323844
-8.3095741 -17.269188 1.6517565
-3.7848873 -9.4405823 1.2327461
-8.3658724 -17.275883 1.6533387
-3.8446851 -9.4880714 1.2360461
-8.4113197 -17.252628 1.6534743
-3.8676224 -9.4745426 1.2360461
-8.4704819 -17.256239 1.6550113
-3.8897619 -9.4636822 1.2361366
-8.5324516 -17.271656 1.6570908
-3.9191465 -9.4609251 1.2367243
-8.5637636 -17.228003 1.6560962
-3.92995 -9.4271479 1.2356393
-8.6436844 -17.265385 1.6594867
-3.9928703 -9.4837561 1.2393913
-8.6862736 -17.247679 1.6598032
-3.992856 -9.4301462 1.2372667
-3.5142131 -9.4606819 1.1900907
-7.5661421 -16.860575 1.5510581
-3.5542059 -9.4832468 1.1917605
-7.62221 -16.872087 1.5526445
-3.5658507 -9.4500685 1.1907586
-7.667387 -16.856058 1.5529784
-3.5987287 -9.4552431 1.1916353
-7.7258344 -16.86377 1.5544813
-3.6341901 -9.4689636 1.1928875
-7.7783318 -16.867973 1.5557334
-3.6776638 -9.4904222 1.1945992
-7.8404655 -16.877831 1.5574033
-3.7041159 -9.4855614 1.1949749
-7.8879786 -16.868912 1.5580713
-3.7316208 -9.48452 1.1955175
-7.9285989 -16.851444 1.55828
-3.7671409 -9.4911928 1.1965194
-8.0035515 -16.88278 1.5610352
-3.7936499 -9.4860859 1.1968951
-8.0482512 -16.868343 1.5614526
-3.815856 -9.4755068 1.1969786
-8.0859661 -16.845423 1.5614109
-3.8519907 -9.4827194 1.1980222
-8.1504984 -16.857571 1.5632476
6.310472 -8.5080328 1.1609584
-3.8716283 -9.4655924 1.1978135
-8.2134533 -16.87389 1.5652096
6.2834635 -8.50667 1.1603112
-3.9146008 -9.4901333 1.1996503
-8.2699938 -16.882538 1.5667541
6.2679014 -8.5234261 1.1606132
-3.9509268 -9.4969997 1.2006938
-8.3443441 -16.91 1.5693841
6.2326045 -8.5109367 1.1593618
-3.9894345 -9.5092964 1.201988
-8.3878288 -16.888693 1.569551
6.1890955 -8.4817257 1.1572908
-3.9740412 -9.4353695 1.202019
-8.4455128 -16.898273 1.5767598
6.1630602 -8.4795609 1.1566436
-3.9933848 -9.4157782 1.2017248
-8.475893 -16.854979 1.5758352
6.1577935 -8.518259 1.1580243
-4.0237899 -9.4145069 1.2023551
6.124959 -8.5074739 1.1569026
-4.0504351 -9.4108763 1.2028174
6.0989575 -8.5051098 1.1562552
-4.0955267 -9.4313488 1.2045826
-8.6812506 -16.91629 1.5826854
6.0570478 -8.4791431 1.1543567
-4.1415558 -9.4568901 1.2065578
-8.7242279 -16.896757 1.5829375
6.0406451 -8.4958725 1.1546588
-4.208426 -9.5176516 1.2102981
-8.8046083 -16.941147 1.5863836
6.0017653 -8.4692364 1.1528034
-4.199894 -9.4505968 1.2076504
-8.8245621 -16.877079 1.5844924
5.9815311 -8.482501 1.1502111
-4.2519474 -9.484808 1.2100879
-8.903203 -16.914242 1.5876443
5.9673777 -8.5033731 1.1507255
-4.2414742 -9.4211149 1.2075243
-8.9695692 -16.934788 1.5899137
5.9369955 -8.491931 1.1496538
-4.2766628 -9.4242897 1.2084489
-9.0695858 -16.997423 1.5944946
5.8929338 -8.4600735 1.1475104
-4.3138142 -9.4342241 1.2096677
-9.2432384 -17.181885 1.605211
5.8914623 -8.5049572 1.1492251
-4.3354473 -9.4215832 1.2097096
-9.316328 -17.210489 1.6079426
5.8689117 -8.5079584 1.1488822
-4.3546009 -9.399292 1.200992
-9.3637056 -17.18784 1.5927529
5.8359108 -8.496542 1.1477675
-4.376503 -9.3851681 1.200992
-9.4206839 -17.187086 1.5940325
5.8193369 -8.5128098 1.1480677
-4.4106002 -9.3898077 1.2019414
-9.4825068 -17.193523 1.5956836
5.7880139 -8.5003986 1.1469531
-4.4499002 -9.4002981 1.203221
-9.5455132 -17.197882 1.5972934
5.7692814 -8.5143604 1.1471245
-4.4807167 -9.3976021 1.2038401
-9.6107512 -17.20529 1.5990684
5.7337489 -8.4952116 1.1456671
-4.5146432 -9.4032965 1.2048308
-9.662631 -17.199162 1.600059
5.717907 -8.5108671 1.1459672
-4.5485611 -9.4030695 1.205615
-9.7199497 -17.190456 1.6010909
5.6734419 -8.4753361 1.1436952
-4.5748053 -9.3949718 1.2059453
-9.776762 -17.187796 1.6023293
5.6590004 -8.4956264 1.1442096
-4.6039758 -9.3930626 1.2065644
-9.8162384 -17.162552 1.6023705
5.6370578 -8.498889 1.1439096
-4.635251 -9.388485 1.2071424
-9.8910723 -17.179237 1.6047233
5.5985546 -8.4743633 1.1421949
-4.6691737 -9.3914547 1.2080504
-9.9403677 -17.164742 1.6053838
5.5908918 -8.5085382 1.1433952
-4.7072148 -9.4021673 1.20933
-9.9891386 -17.152824 1.6061268
5.5463753 -8.4651098 1.1408231
-4.7380443 -9.3964624 1.2098665
-10.067591 -17.17366 1.6087272
5.5336514 -8.4929466 1.1416805
-4.7687945 -9.3942776 1.2105269
-10.13689 -17.187605 1.6108737
5.5261879 -8.5279322 1.1429236
-4.807023 -9.4046364 1.2118065
-10.191929 -17.18399 1.6120706
5.4983835 -8.5185165 1.1420233
-4.8580012 -9.4274492 1.2138292
-10.263024 -17.192837 1.6140933
5.4640989 -8.5013208 1.1406945
-4.8671055 -9.3937311 1.2128798
-10.301911 -17.16213 1.6139693
5.4356585 -8.4920902 1.1397943
-4.940064 -9.4510078 1.2166361
-10.387863 -17.19838 1.6173129
5.4014983 -8.4703979 1.138294
-4.9742332 -9.4507942 1.2174616
-10.434568 -17.174997 1.6176431
5.3958702 -8.5117722 1.1398371
-5.0287881 -9.4790974 1.2197731
-10.499316 -17.176939 1.6192942
5.3642969 -8.497364 1.1386797
-5.0573683 -9.4743099 1.2203097
-10.560338 -17.180191 1.620904
5.3327665 -8.4785814 1.1373508
-5.0991077 -9.484025 1.2216718
-10.6207 -17.175373 1.6222248
5.3042245 -8.4701777 1.1364934
-5.1198106 -9.4643145 1.2215067
-10.674262 -17.160862 1.6230503
5.2829924 -8.4776812 1.1364079
-5.1530142 -9.4655838 1.2223735
-10.740624 -17.170656 1.6250317
5.2653198 -8.4888687 1.1365364
-5.1940808 -9.4719124 1.2236118
-10.803919 -17.165649 1.626435
5.242465 -8.4948416 1.1363649
-5.220192 -9.4612856 1.2239008
-10.874406 -17.176968 1.6285815
5.2184095 -8.4938087 1.1358933
-5.2604508 -9.4716635 1.2252629
-10.916204 -17.152317 1.6287879
5.2042265 -8.5128908 1.1364079
-5.2906742 -9.4626884 1.2257169
-10.983707 -17.152199 1.6304803
5.1742868 -8.5026093 1.1354647
-5.3209352 -9.4573536 1.2240953
-11.045244 -17.150482 1.627928
5.1456118 -8.4906473 1.1344788
-5.3660479 -9.4736118 1.22578
-11.113884 -17.161362 1.6300235
5.1270952 -8.4997454 1.1345216
-5.398684 -9.4674368 1.2263963
-11.176954 -17.15432 1.6313795
5.1050358 -8.5071297 1.1344359
-5.4395666 -9.4757233 1.2277112
-11.252712 -17.170532 1.6338449
5.0627151 -8.4626341 1.1319067
-5.4737444 -9.4767666 1.2286152
-11.300451 -17.15274 1.6344613
5.0560637 -8.4993896 1.1332785
-5.5348873 -9.5074787 1.2312038
-11.360134 -17.140421 1.6355708
5.0389376 -8.5182743 1.13375
-5.5490222 -9.4782343 1.2305875
-11.440787 -17.158564 1.6382415
5.0040936 -8.4926872 1.1321211
-5.5684409 -9.45961 1.2304642
-11.487988 -17.1395 1.6388168
4.9818468 -8.4925251 1.13003
-5.6397686 -9.5043697 1.2337925
-11.56171 -17.147886 1.6409945
4.9580178 -8.4928846 1.1296459
-5.6646032 -9.4887857 1.2339158
-11.636752 -17.157543 1.6432545
4.9375334 -8.5013018 1.1296459
-5.7050729 -9.4968033 1.2352307
-11.690644 -17.146423 1.6442817
4.9083142 -8.4837208 1.1284509
-5.7096691 -9.4535112 1.2339158
-11.748201 -17.129789 1.6452268
4.9020414 -8.5294247 1.1302007
-5.7698183 -9.4843607 1.2365044
-11.817656 -17.134661 1.6471992
4.8720922 -8.5120296 1.1290057
-5.8213792 -9.5057478 1.238559
-11.88559 -17.140585 1.6491715
4.8455596 -8.5005684 1.1281095
-5.8708739 -9.5187187 1.2402847
-11.954218 -17.137068 1.6508563
4.8174543 -8.4917784 1.1272985
-5.8826766 -9.4880228 1.2395862
-12.015407 -17.130579 1.6522532
4.7917008 -8.4840975 1.126573
-5.9320745 -9.5058908 1.2414763
-12.084823 -17.137354 1.6543077
4.7678528 -8.4787598 1.1259754
-5.9547691 -9.4850359 1.2413942
-12.138926 -17.11495 1.6550063
4.7430973 -8.4779091 1.1255486
-6.0046005 -9.5011196 1.2432432
-12.22736 -17.141153 1.6582112
4.7311373 -8.5055246 1.1264876
-6.0301828 -9.4890509 1.2435309
-12.295221 -17.144949 1.6601425
4.7083759 -8.5027475 1.126018
-6.0596409 -9.4762392 1.2439007
-12.339518 -17.109865 1.6601837
4.672225 -8.4716063 1.1241828
-6.1184015 -9.5023966 1.246325
-12.420908 -17.126213 1.6628956
4.6601334 -8.4991074 1.1251218
-6.1583629 -9.5072975 1.2475576
-12.48837 -17.128603 1.6647856
4.6401892 -8.5034513 1.1249938
-6.1966729 -9.5045986 1.2485027
-12.558893 -17.12447 1.6665525
4.6168594 -8.5058784 1.1247377
-6.2397776 -9.5092344 1.2498176
-12.629753 -17.123686 1.6684427
4.5916338 -8.5006247 1.1241401
-6.2547636 -9.4838791 1.2494068
-12.682369 -17.107479 1.6693467
4.5757184 -8.5158014 1.1245244
-6.3181162 -9.5120926 1.2520366
-12.771645 -17.127838 1.6724284
4.5515265 -8.513175 1.1240548
-6.3581223 -9.5124149 1.2578096
-12.850753 -17.135693 1.6833565
4.5220881 -8.4957876 1.1229024
-6.3965311 -9.5142632 1.2589291
-12.937767 -17.158907 1.6865079
4.5018654 -8.4988804 1.1227317
-6.4166574 -9.4892826 1.2586803
-13.012654 -17.157654 1.6885396
4.4822063 -8.5110378 1.1229451
-6.4649282 -9.5004816 1.2603804
-13.097789 -17.174425 1.691442
4.4518061 -8.4876127 1.1215367
-6.4938593 -9.4909086 1.260878
-13.162271 -17.170197 1.6931007
4.4367647 -8.5052748 1.1220489
-6.5389156 -9.4943714 1.2622464
-13.286855 -17.224731 1.6983252
4.401763 -8.4730139 1.1202136
-6.5861316 -9.5036182 1.2638633
-13.363518 -17.230251 1.7006471
4.3868618 -8.493619 1.1208538
-6.6299696 -9.5105457 1.2653146
-13.445759 -17.244989 1.7034252
4.369236 -8.5038395 1.1193588
-6.6907797 -9.5310307 1.267678
-13.537567 -17.26022 1.7064936
4.3429484 -8.4962635 1.1186789
-6.7201271 -9.5193243 1.2681342
-13.623045 -17.274351 1.7093546
4.3275814 -8.5158367 1.1192738
-6.7563829 -9.5170507 1.2690879
-13.763627 -17.352903 1.7158231
4.3003192 -8.4971581 1.1181265
-6.8077278 -9.5260534 1.2708294
-14.271599 -17.829174 1.7453041
4.2802596 -8.5079021 1.1182965
-6.8288517 -9.5030766 1.270705
-14.251258 -17.718784 1.7412405
4.2579236 -8.5090647 1.1180415
-6.9075804 -9.5489349 1.2743952
-14.409719 -17.816174 1.7488286
4.2268381 -8.4750614 1.1162143
-7.0145311 -9.6179724 1.2771895
-14.47038 -17.791586 1.7452307
4.2059135 -8.4828367 1.1162568
-6.9547701 -9.506032 1.2719886
-14.572726 -17.815662 1.7489042
4.1919699 -8.5098314 1.1171917
-6.9899158 -9.5015621 1.2728555
-14.641515 -17.809431 1.7506793
4.165678 -8.4925823 1.1161294
-7.0463047 -9.5145674 1.274878
-14.72336 -17.806896 1.7529495
4.1435361 -8.4964771 1.1160018
-7.052526 -9.4768467 1.2738874
-14.768706 -17.771469 1.7531557
4.1238346 -8.5026197 1.1160018
-7.0597334 -9.442111 1.2730205
4.1000261 -8.4926205 1.1152794
-7.1068702 -9.4447422 1.2744653
-15.007813 -17.855141 1.7626495
4.0670838 -8.4608793 1.1135373
-7.1918297 -9.4907169 1.2783453
-15.018476 -17.782112 1.7607095
4.0482745 -8.4695024 1.116946
-7.2452855 -9.5046129 1.2803266
-15.104416 -17.792135 1.7635164
4.0386734 -8.5060177 1.1183606
-7.3089199 -9.5235424 1.2827619
-15.209673 -17.81188 1.76719
4.0115356 -8.4927387 1.1174605
-7.3574333 -9.5298185 1.2843717
-15.280054 -17.801308 1.7689235
3.9882593 -8.4863987 1.1169032
-7.3889003 -9.5198965 1.2849909
-15.344739 -17.787899 1.7704096
3.9762065 -8.5153513 1.1179749
-7.4094639 -9.4932804 1.2847846
-15.433483 -17.789051 1.7730513
3.9383447 -8.4643803 1.1153599
-7.4805431 -9.5222111 1.2877564
-15.516943 -17.791031 1.7755692
3.9345818 -8.5253639 1.1178892
-7.4903874 -9.4879541 1.2894883
-15.576512 -17.768133 1.7813365
3.9142783 -8.5291281 1.1178033
-7.5543823 -9.5072298 1.2919761
-15.666589 -17.772797 1.7841561
3.8863096 -8.508647 1.1166031
-7.6013994 -9.5088749 1.2934273
-15.78283 -17.803516 1.7885513
3.8595042 -8.4918365 1.1155742
-7.646019 -9.5114107 1.2948371
-15.823165 -17.763639 1.7885513
3.8406026 -8.4970808 1.1155742
-7.6974936 -9.5152855 1.2964957
-15.935221 -17.785721 1.7925732
3.8208671 -8.5085745 1.1158315
-7.7210436 -9.4945288 1.2965786
-15.992373 -17.758987 1.7934854
3.7998621 -8.5092344 1.1156172
-7.7485075 -9.4794178 1.2969518
-16.074802 -17.760601 1.7960148
3.7705534 -8.475708 1.1138597
-7.7931633 -9.4759636 1.2981957
-16.162369 -17.75684 1.7985442
3.7613878 -8.5267735 1.1126449
-7.8423519 -9.4802971 1.2998128
-16.265446 -17.774633 1.8021929
3.7316875 -8.494257 1.1109452
-7.8949113 -9.4894476 1.3016787
-16.33289 -17.760283 1.8038101
3.70909 -8.4850464 1.1103078
-7.9292641 -9.4752455 1.3023007
-16.414471 -17.749416 1.8059661
3.6883302 -8.4924421 1.1103928
-8.0136538 -9.5130281 1.3059909
-16.515163 -17.763439 1.8094492
3.6671915 -8.4918213 1.1101378
-8.044055 -9.4998636 1.30653
-16.603825 -17.768652 1.8123102
3.6492469 -8.5004063 1.1103078
-8.0862465 -9.4926357 1.3076081
-16.653324 -17.725718 1.8125589
3.6234629 -8.4877748 1.1095004
-8.1233263 -9.4838791 1.3033578
-9.3177948 -10.626287 1.3729644
3.6091752 -8.5144529 1.1104777
-8.1516037 -9.4683762 1.3037689
-9.3168983 -10.57776 1.3715262
3.5851135 -8.4982738 1.1095428
-8.2278452 -9.4929409 1.3068094
-9.3117075 -10.519464 1.3696772
3.558778 -8.4825993 1.108608
-8.2934494 -9.5087461 1.3092749
-9.3479137 -10.502452 1.3702936
3.5378692 -8.48563 1.1085231
-8.3261032 -9.4968052 1.3099324
-9.3579445 -10.464719 1.3695128
3.5176311 -8.4844389 1.1082681
-8.3740768 -9.4955177 1.3113705
-9.3890686 -10.44288 1.3698416
3.4960587 -8.4845161 1.1080556
-8.4421225 -9.512639 1.3139591
-9.423727 -10.424269 1.3703758
3.4784665 -8.5016441 1.108608
-8.4762955 -9.5015993 1.3146987
-9.4779053 -10.427526 1.3721426
3.4556139 -8.4888954 1.1078432
-8.5454445 -9.5172815 1.3172874
-17.507511 -17.759235 1.8300498
3.4341416 -8.492794 1.1078007
-8.5827322 -9.5069475 1.3181503
-17.570286 -17.732664 1.8312414
3.418936 -8.5172281 1.108693
-8.610487 -9.4895744 1.3185201
-17.661663 -17.735329 1.8341587
3.393213 -8.4909782 1.1073332
-8.6864128 -9.5104771 1.3214786
-17.762518 -17.73605 1.8373227
3.3773823 -8.5204468 1.108438
-8.7281322 -9.5036154 1.322588
-17.85001 -17.730936 1.8399112
3.350188 -8.4904261 1.1069083
-8.7733459 -9.5015039 1.3239441
-17.946075 -17.736494 1.8430753
3.3341525 -8.5078535 1.1075032
-8.8096199 -9.4858589 1.3246425
-18.03784 -17.727625 1.845705
3.3075967 -8.4875727 1.1063983
-8.8842249 -9.5077267 1.327601
-18.141653 -17.735775 1.8491976
3.2899163 -8.5012617 1.1068233
-8.9164515 -9.4934444 1.3282174
-18.209595 -17.71504 1.850759
3.2702038 -8.5013723 1.1066533
-8.9798841 -9.5011883 1.3304362
-18.322845 -17.723841 1.8545804
3.249306 -8.5076561 1.1067383
-9.0425396 -9.5096798 1.3326552
-18.42432 -17.725086 1.8578265
3.2297542 -8.5165958 1.1069508
-9.0570393 -9.4812212 1.3323264
-18.493683 -17.707977 1.8595524
3.208539 -8.5049229 1.1062709
-9.139122 -9.5042934 1.3355725
-18.605137 -17.713627 1.8632505
3.1840115 -8.4926872 1.1095608
-9.1872616 -9.4993486 1.3369696
-18.687748 -17.697172 1.8654282
3.1650193 -8.5043449 1.1099045
-9.2284908 -9.4918365 1.338079
-18.794445 -17.70783 1.8691263
3.1396701 -8.474452 1.1084008
-9.2633514 -9.4751387 1.3387364
-18.886845 -17.698954 1.8718383
3.1288331 -8.5291462 1.1106778
-9.3591499 -9.5101519 1.3427632
-18.980068 -17.690359 1.8745914
3.1025486 -8.5023117 1.109303
-9.4020166 -9.5033569 1.3439548
-19.08642 -17.699223 1.8782482
3.0769203 -8.4693527 1.1076705
-9.4736929 -9.5152521 1.3465846
-19.194954 -17.699219 1.881741
3.0546718 -8.4674625 1.1074128
-9.5325069 -9.5195618 1.348598
-19.298035 -17.700878 1.8851104
3.0381327 -8.4882822 1.1081861
-9.5912647 -9.5253334 1.3506525
-19.377842 -17.686035 1.8872881
3.0177164 -8.4829893 1.1077994
-9.6182299 -9.499012 1.350817
-19.490482 -17.687923 1.8909862
2.998147 -8.4963188 1.108229
-9.648632 -9.479105 1.3512689
-19.607452 -17.69961 1.8950951
2.9799292 -8.5083704 1.1086156
-9.6841536 -9.4651337 1.3520496
-19.670156 -17.669519 1.896328
2.9601805 -8.5067806 1.1084008
-9.7653761 -9.4830093 1.3551724
-19.79298 -17.678185 1.9005601
2.9358401 -8.4920616 1.1075846
-9.7745953 -9.4454498 1.3544738
-19.902809 -17.682438 1.9042583
2.9158378 -8.4933844 1.1074986
-9.8359079 -9.4519567 1.3566517
-19.981531 -17.664391 1.906354
2.8999035 -8.5148602 1.1059158
-9.884758 -9.4427052 1.3580077
-20.104046 -17.671074 1.9105451
2.8799582 -8.5269451 1.1062999
-9.9441786 -9.443511 1.35998
-20.204504 -17.662849 1.9136269
2.8556342 -8.5060825 1.1052328
-9.9805498 -9.4292574 1.3608017
-20.300957 -17.657812 1.9166675
2.8328462 -8.4839458 1.1041231
-10.056129 -9.4423819 1.363637
2.8085978 -8.4619837 1.1030135
-10.078997 -9.4134808 1.363637
2.7927897 -8.495924 1.1043792
-10.16833 -9.4403896 1.3672941
-21.564329 -18.391483 1.9775629
2.7737398 -8.4977484 1.1043365
-10.228001 -9.4399719 1.3721268
-21.70615 -18.40942 1.988394
2.7482517 -8.4659557 1.1028001
-10.285525 -9.4375896 1.3739843
-21.807568 -18.395164 1.9914072
2.7300267 -8.4843206 1.103483
-10.353697 -9.4468079 1.3765023
-21.895546 -18.377251 1.9938838
2.7099357 -8.4782686 1.1030989
-10.374359 -9.4136429 1.3763371
-22.025888 -18.380825 1.9983418
2.6889732 -8.4831219 1.1031842
-10.470644 -9.4420395 1.3802998
-22.132013 -18.372372 2.0016851
2.6713786 -8.5012503 1.1038671
-10.570905 -9.4747353 1.38451
-22.228737 -18.359879 2.0046158
2.6534758 -8.5114994 1.1042085
-10.68337 -9.5105839 1.3892156
-22.378155 -18.376125 2.0100644
2.6304176 -8.5007267 1.103611
-10.720321 -9.4924536 1.3899999
-22.473713 -18.358145 2.01283
2.6107104 -8.5032425 1.103611
-10.799287 -9.507596 1.3930544
-22.590214 -18.359104 2.0167925
2.5917854 -8.5056124 1.103611
-10.878707 -9.5171032 1.395985
-22.719088 -18.35791 2.0211267
2.5704889 -8.5082273 1.103611
-10.980759 -9.5466938 1.4001954
-22.85561 -18.368986 2.0260386
2.5481122 -8.4883165 1.1026294
-11.025642 -9.5352907 1.4014336
-22.970188 -18.366779 2.0298774
2.5292211 -8.4905424 1.1026294
-11.083426 -9.5276213 1.4032085
-23.109743 -18.371513 2.0347481
2.511502 -8.5240145 1.1039951
-11.139576 -9.5203533 1.4049422
-23.214678 -18.353827 2.0378852
2.4874876 -8.4953051 1.1026294
-11.190559 -9.5128021 1.3913882
-23.325882 -18.347536 2.0120041
2.4647679 -8.4624767 1.1010928
-11.268224 -9.5187626 1.3941314
-23.473001 -18.355814 2.0171275
2.4473062 -8.4996881 1.1026294
-11.316518 -9.5068893 1.3954626
-23.563026 -18.329491 2.0195076
2.4239621 -8.4668312 1.1010928
-11.382182 -9.5091505 1.3977218
-23.692574 -18.33482 2.0239856
2.4077916 -8.494978 1.1022452
-11.459324 -9.5136566 1.4004247
-23.845749 -18.345383 2.0293913
2.3873892 -8.5058537 1.1026294
-11.493418 -9.4909706 1.4010298
-23.950314 -18.327984 2.0324976
2.3642855 -8.4728279 1.1010928
-11.576015 -9.5043182 1.4041361
-24.097054 -18.343597 2.0378227
2.3465331 -8.4862871 1.1016051
-11.665398 -9.5163422 1.4074441
-24.214863 -18.327103 2.0414131
2.3242321 -8.4767799 1.097147
-11.764351 -9.5383358 1.4113169
-24.354099 -18.332403 2.0462542
2.3056257 -8.490222 1.0976535
-11.794491 -9.5138531 1.4117606
-24.450109 -18.310673 2.0489974
2.2896969 -8.5259094 1.099131
-11.880219 -9.5220613 1.4148669
-24.604315 -18.317717 2.0544031
2.2625129 -8.4587173 1.0961338
-11.954649 -9.5258369 1.4174892
-24.732754 -18.313637 2.0586793
2.247858 -8.5206385 1.0987511
-12.035536 -9.5355701 1.4204745
-24.87006 -18.318743 2.0634801
2.2268772 -8.4968872 1.0976535
-12.107914 -9.5333691 1.422895
-24.993366 -18.302502 2.0673125
2.2047021 -8.4868841 1.097147
-12.169622 -9.5254955 1.4295884
-25.122795 -18.293552 2.0808043
2.1844604 -8.4913568 1.0972736
-12.205486 -9.503767 1.4303195
