# .PCD v0.7 - Point Cloud Data file format
VERSION 0.7
FIELDS x y z
SIZE 4 4 4
TYPE F F F
COUNT 1 1 1
WIDTH 1572
HEIGHT 1
VIEWPOINT 0 0 0 1 0 0 0
POINTS 1572
DATA ascii
7.5915432 -5.007194 1.0077937
7.5689998 -5.009666 1.0070623
7.5455437 -5.0102105 1.0062335
7.5143561 -5.006073 1.0049657
7.4946189 -5.0109248 1.0064915
7.4826546 -5.0232601 1.0064915
7.4366951 -5.0033417 1.0041376
7.4277506 -5.0194421 1.0043828
7.3968043 -5.0119529 1.0030097
7.3705063 -5.0108032 1.0020289
7.338027 -5.0033593 1.0006068
7.3155308 -5.0038013 0.99982208
7.2778759 -4.991755 0.99805665
7.2865348 -5.024374 0.99952781
7.2572279 -5.0176682 0.99825281
7.2197194 -5.005291 0.99648738
7.2036843 -5.0127778 0.99619317
7.1758952 -5.0071521 0.99501622
7.1583114 -5.0148082 0.99267834
7.138906 -5.0186014 0.99214196
7.0990925 -5.0000191 0.99009413
7.0861998 -5.0123167 0.99009413
7.0784478 -5.0290856 0.99043542
7.0354848 -5.0066075 0.98814374
7.0057096 -4.9997911 0.98687601
6.9846458 -5.0021296 0.98624218
6.9678731 -5.0070815 0.98585206
6.9529767 -5.01689 0.98570579
6.9284587 -5.0142851 0.98477936
6.9005055 -5.0068369 0.98356038
6.8856258 -5.0164561 0.98341405
6.8592429 -5.0114307 0.98234141
6.8516345 -5.0261097 0.9839251
6.8158789 -5.0123563 0.98221207
6.7980676 -5.0165172 0.98177147
6.7762051 -5.0150924 0.98098838
6.7464776 -5.0075555 0.97971576
6.7166524 -4.9987459 0.97839421
6.7090526 -5.0132017 0.97868788
6.686996 -5.0130415 0.97795367
6.6713557 -5.0201716 0.97770894
6.640101 -5.0072274 0.97619164
6.6092458 -4.9964643 0.97477221
6.5924072 -5.0018945 0.97442961
6.5739961 -5.0034876 0.97389114
6.5642452 -5.0181489 0.97413588
6.5372343 -5.0103931 0.97171187
6.5151057 -5.0073223 0.97088301
6.5003228 -5.0158601 0.97073668
229.73834 34.804482 12.190372
6.4846144 -5.0213079 0.97044414
226.94113 33.825943 12.044218
6.4606915 -5.0157819 0.96946895
224.1046 32.877422 11.8964
6.4508543 -5.0301957 0.96971273
6.4203339 -5.0173707 0.96824998
6.40453 -5.0214443 0.96790862
6.3885169 -5.0281525 0.96766484
6.3509626 -5.0070701 0.9656657
6.3376608 -5.0139976 0.96551943
6.3270369 -5.0262303 0.9656657
6.3024397 -5.0208631 0.96469057
206.93869 26.236446 10.918105
6.2842894 -5.0215392 0.96415418
204.23364 25.41787 10.779334
6.266017 -5.0249419 0.9606688
6.2414155 -5.0181899 0.95965469
6.2083673 -4.9994268 0.95791614
198.37511 23.231359 10.476535
6.1960754 -5.01019 0.95796442
6.1817379 -5.0163212 0.9577713
6.1714296 -5.0266914 0.95786786
192.7856 21.16378 10.188259
6.1519704 -5.0280523 0.95733666
222.45688 23.880501 11.565426
6.1281867 -5.0216227 0.95637083
189.76797 19.883444 9.941412
6.1043472 -5.013968 0.95535672
6.0925922 -5.0252509 0.95545328
6.0737009 -5.0259862 0.95492208
184.11061 17.928146 9.6540346
6.0440531 -5.0091476 0.95337677
6.0270829 -5.0132222 0.95303869
181.20036 16.776205 9.5057278
6.0123281 -5.0192494 0.95284551
211.0358 19.04574 10.981242
6.004283 -5.0324049 0.95313525
178.34451 15.658021 9.3604517
209.51581 18.426649 10.903842
5.9781122 -5.0237274 0.95202458
176.57399 15.046291 9.2708321
207.90782 17.747625 10.821919
5.9523964 -5.0134654 0.95086557
5.9460402 -5.0288825 0.9513002
201.88657 16.284508 10.519967
5.9251246 -5.0270944 0.95062411
171.87439 13.397427 9.0331469
5.8978405 -5.0142236 0.9493202
5.8835306 -5.0184145 0.9490788
202.39082 14.859125 10.577866
5.8649721 -5.0195951 0.94859588
167.79399 11.86321 8.8586807
201.42746 14.269606 10.528173
5.8451471 -5.0168476 0.94791979
166.66397 11.386555 8.8012133
5.8375626 -5.0304928 0.9482578
201.96613 13.365858 10.551691
5.8218126 -5.0355191 0.94801635
164.0155 10.409413 8.6671553
5.7859516 -5.0093408 0.94593978
5.7717113 -5.0132337 0.94569838
161.31 9.4859829 8.5306349
5.7682295 -5.0359001 0.9436096
5.7359805 -5.0153913 0.94188797
158.62123 8.5292873 8.3950319
5.7332373 -5.0361118 0.94265318
5.7049408 -5.0210848 0.9412663
189.52483 9.3111515 9.9250584
5.6913919 -5.0278311 0.94117057
155.4561 7.2385287 8.2352829
187.9408 8.7688456 9.8454247
5.6755466 -5.0290313 0.94078803
186.45401 8.274272 9.7707663
5.650732 -5.0197544 0.93973589
152.83794 6.3778596 8.1038818
184.89703 7.7310591 9.6925821
5.6505604 -5.0455875 0.94078803
151.69632 5.9710917 8.0178499
181.81064 7.1699018 9.5042362
5.6095824 -5.0083265 0.93815768
150.82068 5.5940781 7.9739785
185.12398 6.8805971 9.6669741
5.605197 -5.0298409 0.93892288
149.76039 5.1722064 7.9209671
183.45572 6.3485861 9.5838013
5.5815158 -5.0196447 0.93787074
5.5641975 -5.0180707 0.93734467
147.21596 4.4020591 7.7943072
179.22394 5.3690033 9.3736324
5.5491557 -5.0231118 0.93715334
146.17085 3.9978623 7.7422099
181.80048 4.9819045 9.5000992
5.5371675 -5.0307841 0.93715334
145.12885 3.6266067 7.6903534
176.14183 4.4087586 9.2203703
5.5203381 -5.0297713 0.93951702
144.13043 3.274986 7.6407089
5.5011234 -5.0280857 0.93893754
143.03447 2.8855031 7.5862546
178.32608 3.6029124 9.3271627
5.4782696 -5.0194249 0.93797171
177.43626 3.1482046 9.2828588
5.4709044 -5.0332456 0.93835801
140.93123 2.1781795 7.4819155
171.84401 2.6583419 9.00669
5.4393663 -5.010376 0.93657124
139.45273 1.8133659 7.4087481
175.03732 2.2773738 9.1638956
5.4264174 -5.017252 0.93652296
138.33612 1.4597633 7.353476
173.62817 1.8319712 9.0941439
5.4220743 -5.0359688 0.937199
137.09258 1.1365635 7.2919984
172.84479 1.4313524 9.0553236
5.3988924 -5.026155 0.93618488
135.92395 0.79392904 7.3241167
171.60146 0.99916363 9.1077309
5.3778048 -5.0195909 0.93536389
134.70042 0.4569515 7.2628751
171.67163 0.57746738 9.1111431
5.3592391 -5.0148783 0.93468785
133.6194 0.15136068 7.2088013
169.38527 0.1856508 8.9968033
5.3453088 -5.0209994 0.93459129
132.34258 -0.18638222 7.1449752
168.01379 -0.2445212 8.9282475
5.3273201 -5.0181379 0.93401176
131.15079 -0.49317718 7.0854402
167.18071 -0.63825959 8.8866558
5.3228049 -5.0367303 0.93468785
129.63849 -0.78000104 7.009912
166.53113 -1.0134487 8.8542795
5.2854962 -5.0032911 0.93232155
128.38759 -1.0983856 6.9475002
161.5714 -1.3942688 8.6064854
5.2796965 -5.020771 0.92456746
126.78311 -1.382376 6.8674374
5.2652397 -5.0224657 0.92428613
125.70189 -1.6540351 6.8135586
165.04169 -2.1896434 8.7804098
5.2488623 -5.0241137 0.92395782
124.27429 -1.9503019 6.7424188
5.2432289 -5.0431662 0.92461431
123.10561 -2.2324858 6.6842489
121.94968 -2.4747226 6.6267133
120.34174 -2.7467151 6.5466504
144.40245 3.162086 7.0669413
169.93904 3.3331964 8.2207756
174.49208 3.4244406 8.4265556
21.340412 32.796135 2.3758659
141.29285 2.0661724 6.9255223
21.41909 32.743618 2.3755984
170.82628 2.1229961 8.2599659
21.513565 32.73246 2.377336
169.82846 1.6766603 8.2146482
21.596184 32.679359 2.3771577
168.48579 1.2647619 8.1538134
21.712204 32.696892 2.3805437
167.47375 0.87692219 8.1079664
21.800816 32.674862 2.3817465
135.41074 0.35723525 6.659039
21.890285 32.632748 2.3821921
134.21815 0.03771735 6.6051254
21.990036 32.621731 2.3841076
132.72534 -0.26300684 6.5376782
22.103405 32.639843 2.3874936
131.77605 -0.59633309 6.4948292
165.2923 -0.74414718 8.0093527
22.196903 32.603573 2.3882954
164.31067 -1.1280444 7.9650927
22.298889 32.594986 2.3903894
129.46579 -1.183377 6.3906164
22.395771 32.584698 2.3923049
128.18544 -1.497508 6.3329115
162.21771 -1.8955884 7.8708429
22.50362 32.570824 2.3943543
126.59625 -1.7887018 6.2612762
22.600163 32.545303 2.3956909
125.38747 -2.0429399 6.1831927
160.33472 -2.615931 7.7558599
22.698219 32.542728 2.397963
124.05139 -2.3361886 6.1233182
157.1106 -2.9638274 7.6110907
22.790123 32.502308 2.3986311
122.7373 -2.6114752 6.0644536
158.26152 -3.374501 7.663239
22.884579 32.472668 2.3997896
121.39977 -2.8568344 6.0045352
157.44585 -3.7140534 7.626893
22.959709 32.426136 2.3998342
119.67982 -3.1086056 5.9274535
23.096146 32.461742 2.4045565
118.4606 -3.366241 5.8729343
155.47617 -4.4311814 7.5391445
23.18063 32.415653 2.4048684
117.14888 -3.5929067 5.8142452
152.56468 -4.6933851 7.4085536
23.283176 32.411034 2.4072294
115.19312 -3.8245671 5.7266288
23.372791 32.365711 2.4077196
113.75248 -4.043426 5.662189
152.64581 -5.4460826 7.4133382
23.48761 32.372375 2.4108381
149.95892 -5.6893148 7.2929311
23.571625 32.338306 2.4116402
110.33837 -4.4491391 5.5093865
23.691231 32.33778 2.4146252
108.27482 -4.6189694 5.4169412
23.82259 32.367779 2.4190803
106.83235 -4.797327 5.352458
23.907238 32.333683 2.4199266
104.72947 -4.9669175 5.2583003
24.029945 32.336075 2.4231343
102.29559 -5.0896134 5.1395793
24.132427 32.321198 2.4251835
24.248291 32.332336 2.4285693
97.983696 -5.3401194 4.9468479
24.345585 32.295673 2.4296832
95.339539 -5.4257545 4.828537
24.439198 32.260033 2.4307523
92.742912 -5.4750123 4.712285
24.514095 32.216854 2.4310641
89.354774 -5.4968643 4.5605087
24.660118 32.249973 2.4360986
86.241241 -5.5110826 4.4210415
24.766014 32.231068 2.438148
83.182777 -5.4979477 4.2839828
24.857594 32.204445 2.4319983
80.912071 -5.5410185 4.1824045
24.976467 32.203274 2.4350595
77.109177 -5.4613848 4.0118375
25.087021 32.189766 2.4374552
76.369751 -5.5788908 3.9791169
25.199963 32.192215 2.4405162
73.585976 -5.5555544 3.8544106
25.31321 32.175011 2.4428675
71.773453 -5.5823145 3.773376
25.441982 32.191963 2.4469047
133.77887 -10.849227 6.5673699
25.518219 32.141891 2.447082
67.810204 -5.5874124 3.6023622
25.649979 32.148907 2.4508529
65.82766 -5.572279 3.5134287
25.770588 32.152855 2.4542246
64.847916 -5.6316295 3.4697518
25.910187 32.188568 2.4592822
62.92041 -5.6168647 3.3833203
25.993942 32.128239 2.4593265
61.768559 -5.6542301 3.3318739
26.112621 32.127907 2.4625206
59.772636 -5.5985436 3.242238
26.215538 32.112259 2.4647388
58.645519 -5.6363249 3.1919332
26.327736 32.089413 2.4669571
57.149368 -5.6252398 3.1249037
26.437492 32.06929 2.4692197
56.58036 -5.6932368 3.099751
26.567619 32.088478 2.4734786
55.371952 -5.7006292 3.0457149
26.701752 32.099472 2.47756
53.748783 -5.6565671 2.9728913
26.797611 32.059582 2.4787579
53.169487 -5.7114968 2.9472561
26.916382 32.062054 2.4821296
52.015736 -5.7126608 2.895678
27.052246 32.067085 2.4860778
50.582413 -5.6657319 2.8313699
27.184551 32.079479 2.4902039
49.775013 -5.6819959 2.7724323
27.307987 32.086121 2.493886
48.901215 -5.700068 2.7339115
126.37467 -15.142417 6.208147
27.417961 32.05595 2.4958823
47.77702 -5.6736035 2.6840992
27.530853 32.041759 2.4985442
47.492905 -5.7438111 2.6719389
27.69157 32.093922 2.5049324
46.573296 -5.7437153 2.6313334
27.788456 32.045761 2.5059528
45.770191 -5.7457538 2.5958958
27.941841 32.080727 2.5115428
44.591743 -5.6894636 2.5435643
28.051552 32.066628 2.5141602
44.225094 -5.7507167 2.5277565
123.02679 -16.522528 6.0682206
28.163532 32.036076 2.5044165
43.53775 -5.7573781 2.4974868
118.99807 -16.256746 5.8889475
28.281956 32.025627 2.5074139
42.905678 -5.7685728 2.4696927
28.453468 32.079845 2.5142026
42.183437 -5.7676573 2.4378595
121.62106 -17.216621 6.0105472
28.548737 32.033527 2.5153048
41.415127 -5.7563815 2.4039419
28.66378 32.01104 2.5178175
40.923222 -5.7749491 2.3824012
110.90266 -16.203419 5.5319219
28.807549 32.035351 2.522799
40.104729 -5.7529373 2.3462253
28.895935 31.973484 2.5231957
39.357777 -5.7304425 2.3204012
29.070618 32.027302 2.5301168
38.710331 -5.7163582 2.2917023
29.201874 32.03447 2.5341725
38.286003 -5.7453218 2.2731657
29.321754 32.008827 2.5367732
37.86673 -5.7659388 2.2548034
29.461418 32.01849 2.5411816
37.477962 -5.7861061 2.2377934
29.581139 32.01022 2.5443997
36.964447 -5.7939868 2.2152004
29.730457 32.017414 2.5490284
36.415688 -5.7865272 2.1909504
88.939308 -14.666986 4.5724468
29.872547 32.027805 2.533289
36.000408 -5.7960057 2.172719
30.01054 32.038925 2.537694
35.360622 -5.774343 2.1443689
30.178417 32.065144 2.5434947
35.195919 -5.8268318 2.1375213
30.321857 32.07476 2.5480309
34.706562 -5.8204474 2.1159315
30.453281 32.069946 2.5517383
34.265827 -5.823698 2.0965662
95.33654 -16.91573 4.8715186
30.594364 32.069294 2.5558815
33.802254 -5.8205466 2.0761542
30.712975 32.042576 2.5584986
33.414116 -5.8230047 2.0530396
30.812519 32.006359 2.5602431
32.716091 -5.7711515 2.0220752
31.015095 32.072704 2.5684867
32.49855 -5.807899 2.0128684
31.121635 32.030872 2.5702748
32.246693 -5.8309784 2.0020547
31.317497 32.099941 2.5784309
31.83527 -5.8303704 1.9840752
84.300194 -16.156527 4.364347
31.383373 32.00605 2.5772967
31.483528 -5.8337293 1.9687449
84.30722 -16.362074 4.3664317
31.530308 32.013458 2.5819638
31.206139 -5.8475275 1.9567586
82.66468 -16.226948 4.2935586
31.636135 31.981451 2.584101
30.929073 -5.8686938 1.9448593
67.028046 -13.247318 3.5850229
31.802464 31.996353 2.5979762
30.476475 -5.8464689 1.9249256
31.93137 31.982203 2.6014366
30.13261 -5.8420377 1.9098994
32.044025 31.956177 2.6040211
29.543873 -5.792356 1.8837988
32.192547 31.949728 2.6083574
29.262882 -5.8002443 1.8716388
32.318413 31.930706 2.611599
29.226639 -5.8572102 1.8705965
73.384468 -15.435751 3.8819871
32.448666 31.921949 2.6153221
28.889381 -5.8560472 1.8559177
73.297638 -15.609344 3.879859
32.613052 31.93025 2.620666
28.610958 -5.8635755 1.843888
71.652893 -15.429317 3.8066387
32.740959 31.905531 2.6238198
28.299522 -5.8570704 1.8302948
71.625832 -15.590683 3.8070292
32.871601 31.895382 2.627543
28.031849 -5.864243 1.8187429
68.273315 -15.010254 3.6557679
33.019287 31.890162 2.6319671
27.808041 -5.8801732 1.8091886
69.92247 -15.562331 3.73281
33.18206 31.899834 2.6373549
27.52177 -5.8753915 1.7967247
69.918854 -15.725296 3.7342868
33.334198 31.909933 2.642436
27.216877 -5.8724651 1.783479
68.194138 -15.504377 3.6572881
33.46299 31.877052 2.6454144
26.939873 -5.8696032 1.7714493
68.211906 -15.675249 3.6598067
33.643814 31.908882 2.6521163
26.375191 -5.7938967 1.7462174
33.727222 31.847042 2.6355894
26.199009 -5.8169641 1.7388345
33.902905 31.859915 2.6414957
26.20401 -5.878778 1.7397031
34.089966 31.895454 2.6484876
26.217941 -5.9404712 1.7409625
56.015278 -13.322396 3.1074834
34.192204 31.851282 2.6503115
26.237564 -6.0110273 1.7425693
56.066799 -13.482862 3.1114354
34.30077 31.794867 2.6519618
24.999298 -5.758606 1.6863729
56.028713 -13.610158 3.1111746
34.503742 31.843735 2.6599092
24.819687 -5.7682214 1.6787295
56.047413 -13.746451 3.1134763
34.614407 31.806614 2.6622543
24.55584 -5.7621098 1.6562666
57.645168 -14.307259 3.1611409
34.810158 31.834255 2.6693335
24.354164 -5.7663407 1.6477174
57.063232 -14.29697 3.1362238
34.933807 31.802654 2.6722865
24.149372 -5.7665539 1.6389964
61.143784 -15.50578 3.3235331
35.132851 31.84988 2.6801038
23.943043 -5.772069 1.6302752
35.264957 31.813004 2.683187
23.727966 -5.7719698 1.6211246
57.232449 -14.774723 3.1488113
35.430626 31.813971 2.6885285
23.516949 -5.7675424 1.6121029
26.117676 -6.4727864 1.7307606
35.598869 31.828779 2.6943917
23.320019 -5.7703176 1.6037685
58.829464 -15.494557 3.2249808
35.814449 31.875574 2.7027731
23.15424 -5.7807274 1.5968518
35.974483 31.86849 2.72997
23.077042 -5.8107705 1.5939305
36.060448 31.803062 2.7307601
21.856266 -5.5246487 1.5387688
36.324078 31.885824 2.7419534
22.163963 -5.6626763 1.5534613
36.489506 31.887474 2.7474408
22.911488 -5.9264569 1.5883026
24.878033 -6.4906178 1.6783913
36.639931 31.880522 2.7521815
22.725594 -5.9302769 1.5804837
36.823303 31.884981 2.7583709
22.506302 -5.9191756 1.5710752
24.490612 -6.499155 1.6621093
37.051094 31.941574 2.767633
22.337345 -5.919765 1.5639437
24.141579 -6.4516196 1.6467723
37.169773 31.903124 2.7703981
22.032143 -5.8852386 1.5506259
24.003307 -6.4718523 1.6411873
37.433952 31.97838 2.7814603
21.829288 -5.8757505 1.5419478
23.89809 -6.4968224 1.637063
37.537189 31.918417 2.7830844
21.650497 -5.870542 1.5343437
23.640362 -6.4729104 1.6258932
37.711899 31.928827 2.7892299
21.446831 -5.8629169 1.5256658
46.738617 -13.590738 2.6902046
37.893841 31.926424 2.7952437
21.249485 -5.8541894 1.5172453
23.210155 -6.4586143 1.607592
38.141361 31.987793 2.8053837
21.171738 -5.8776999 1.514281
45.081806 -13.308846 2.6168275
38.346798 32.022633 2.8133287
20.996971 -5.8744159 1.5068917
49.337372 -14.760016 2.8147478
38.646587 32.127441 2.8218951
20.853035 -5.8800058 1.5009203
49.033527 -14.792683 2.8024182
38.830505 32.128353 2.8281155
17.821354 -4.960381 1.3614265
48.651783 -14.789249 2.7863507
39.106106 32.221058 2.8401608
17.721224 -4.972353 1.3573883
48.240978 -14.789283 2.7691236
39.432804 32.337894 2.8546596
17.514435 -4.9459972 1.3483664
48.020782 -14.839361 2.7605743
39.558796 32.29108 2.8575506
17.392719 -4.9448266 1.3432541
20.118172 -5.8356404 1.4695159
39.745205 32.302242 2.8642087
17.282648 -4.9516926 1.3387432
20.143841 -5.8950777 1.4714062
40.058105 32.402298 2.8777876
17.162476 -4.9514856 1.3337168
40.196426 32.36377 2.8813791
17.03269 -4.9459133 1.3282177
19.867214 -5.8952928 1.4598497
40.544239 32.509144 2.8974986
16.91823 -4.9495783 1.3234921
19.662479 -5.8766289 1.4510428
40.800259 32.555683 2.9076171
16.79833 -4.9477096 1.3184657
40.928127 32.505505 2.9105515
16.705759 -4.9531007 1.3146851
41.152317 32.541943 2.9193125
16.576782 -4.9500761 1.3092721
41.383247 32.563793 2.9278975
16.465445 -4.9494925 1.3046323
41.695839 32.664783 2.9072084
16.335785 -4.9419374 1.2991333
41.934223 32.702641 2.9163985
16.235197 -4.945539 1.2950091
42.05024 32.632328 2.9183836
16.122736 -4.944407 1.2903264
42.12384 32.527073 2.9179521
16.042526 -4.9513464 1.2871042
42.145531 32.392365 2.9149318
15.943066 -4.953907 1.283023
42.110806 32.199772 2.9083734
15.830848 -4.9513183 1.2783403
42.1772 32.089535 2.9075966
15.739872 -4.9530644 1.2732341
42.087173 31.866638 2.8983197
15.641997 -4.9561906 1.2692474
42.115292 31.720476 2.895256
15.536917 -4.9532385 1.2648749
42.286701 31.70083 2.9006495
15.462534 -4.9598899 1.2619171
42.410786 31.649332 2.9035406
15.362137 -4.9606409 1.2578018
42.283016 31.381041 2.8917613
15.266417 -4.9598203 1.2538581
42.522591 31.413742 2.9009948
15.153948 -4.9506874 1.2490997
43.30484 31.87332 2.9407773
15.074744 -4.9581084 1.2459705
43.888432 32.154846 2.9788942
14.977448 -4.9552798 1.241941
43.946762 32.040897 2.9778538
14.892517 -4.9554477 1.2384686
43.192329 31.310955 2.931529
14.808049 -4.9595537 1.2350821
44.642185 32.247952 3.0079718
14.738617 -4.9678507 1.2323816
44.877884 32.260262 3.0166388
14.622185 -4.9542084 1.2274089
45.082798 32.260998 3.0239191
14.546544 -4.959209 1.2244081
45.335476 32.283752 3.0334959
14.471962 -4.964272 1.2189391
45.655777 32.35564 3.0468001
14.388346 -4.9625702 1.2155247
45.997894 32.454853 3.0616207
14.295266 -4.9606009 1.2117262
46.326511 32.522614 3.075141
14.208628 -4.9581547 1.2081836
46.651096 32.598541 3.088748
14.154045 -4.9673724 1.206135
46.805454 32.55468 3.0931249
14.076482 -4.9706521 1.2030621
47.125381 32.611103 3.106082
13.998132 -4.9705677 1.1999037
47.332169 32.596924 3.1131458
13.924811 -4.9709406 1.1969588
47.674706 32.686195 3.1009665
13.849231 -4.9739275 1.1939712
47.809856 32.605106 3.1037097
13.763024 -4.969327 1.1904287
48.093563 32.642719 3.1148124
13.676485 -4.9628644 1.1868436
48.263981 32.605103 3.1199565
13.593084 -4.9612246 1.1834719
48.634342 32.688046 3.1353459
13.52809 -4.9659986 1.1809537
48.85936 32.673431 3.1430621
13.484597 -4.9774609 1.1794171
49.294292 32.817696 3.1623521
13.394739 -4.9705563 1.175704
49.564182 32.831364 3.1724262
13.31922 -4.9696455 1.1726737
50.161903 33.070183 3.1999898
13.269603 -4.9775743 1.1708385
50.220928 32.948452 3.1990895
13.214619 -4.9853625 1.1687899
50.532349 32.985973 3.2113066
13.140158 -4.9839497 1.1658022
50.703094 32.926109 3.216022
13.068494 -4.9809594 1.1629
51.059822 33.00507 3.2309399
12.994592 -4.980319 1.159955
51.406441 33.054829 3.2447858
12.928784 -4.9806089 1.1573515
51.629757 33.033772 3.2524161
12.864393 -4.9800186 1.1547908
51.849277 33.016037 3.260004
53.598057 34.181381 3.3523397
12.801281 -4.9834194 1.1523579
52.310246 33.136745 3.2798085
12.723325 -4.976974 1.1491569
52.755203 33.257977 3.2990561
12.665282 -4.9784803 1.1468949
52.929432 33.2061 3.3042002
12.596201 -4.9780312 1.1441634
53.421288 33.339928 3.3255053
12.54218 -4.9821262 1.1421146
53.745708 33.376175 3.3383222
12.488589 -4.9849777 1.1422317
53.849361 33.275269 3.3397369
12.426695 -4.9871068 1.1398311
54.112606 33.255661 3.3489962
12.359213 -4.9849591 1.1371305
54.341656 33.219948 3.3566265
12.304981 -4.9866853 1.1350299
55.087444 33.525459 3.3914776
12.228038 -4.9791627 1.1318578
55.118824 33.36105 3.3887773
12.180813 -4.9862208 1.130143
55.65366 33.513256 3.4122257
12.131086 -4.9894323 1.1282569
55.702217 33.372784 3.416801
12.062588 -4.986372 1.1255134
56.191101 33.484779 3.4376798
58.907505 35.172626 3.5785055
12.017689 -4.9927249 1.1238844
56.31181 33.380749 3.439785
59.382473 35.27853 3.5987396
11.960287 -4.9912543 1.1216125
56.462383 33.30196 3.4436083
58.931541 34.820148 3.5712447
11.87641 -4.9792509 1.1180973
56.801392 33.316444 3.4566684
58.63435 34.436932 3.5512681
11.843758 -4.9912443 1.1170685
58.592461 34.226383 3.544867
11.775307 -4.9831381 1.1142393
59.080055 34.344276 3.565918
11.737628 -4.9944181 1.1079011
59.452133 34.367733 3.5804815
11.673149 -4.9889746 1.1053147
59.895996 34.447083 3.5990405
11.617828 -4.9869637 1.1031524
59.975044 34.31456 3.5990405
11.556843 -4.9850645 1.100778
60.512032 34.430473 3.6219816
11.508894 -4.9876304 1.0989972
60.702805 34.354759 3.6275234
11.460984 -4.9899945 1.0972165
61.154606 34.431046 3.6463833
11.410073 -4.991622 1.0953084
61.982315 34.716007 3.6841888
11.361775 -4.9944386 1.0935277
62.74078 34.955975 3.6982746
11.311913 -4.9939065 1.0916197
63.182945 35.025124 3.7165418
11.244477 -4.9867134 1.088906
63.596024 35.052032 3.7328029
11.214687 -4.9980206 1.0880158
64.973152 35.640572 3.7978902
11.152223 -4.9896865 1.0854717
65.179771 35.566975 3.8041644
11.096905 -4.9884191 1.0833519
65.301331 35.420933 3.8056583
67.485283 36.648735 3.9152608
11.066338 -4.9987597 1.0824189
66.168594 35.707439 3.8448811
11.004226 -4.9897957 1.0760462
66.310219 35.59367 3.8478689
10.956691 -4.9922223 1.0743232
67.392609 35.975376 3.897378
10.918595 -4.9976864 1.0730205
67.780418 35.985214 3.9124441
10.851498 -4.984983 1.0702468
68.30217 36.074577 3.934339
10.823482 -4.9981122 1.0694903
69.240585 36.362865 3.9764218
10.776238 -4.9976158 1.0677252
69.507759 36.299774 3.9853845
10.7077 -4.9831862 1.0648675
69.591049 36.145134 3.9853845
10.683944 -4.9983306 1.0643212
70.349632 36.326054 3.996161
10.612109 -4.9834909 1.0613374
71.075951 36.493885 4.027452
10.582295 -4.9914279 1.0604129
70.855942 36.175373 4.0125275
10.538184 -4.9927378 1.0588158
71.626694 36.361546 4.045938
10.490786 -4.991827 1.0570508
72.347755 36.51749 4.0768476
10.460202 -4.9988422 1.0560842
72.563194 36.424561 4.083292
10.409092 -4.9962964 1.0541511
72.783821 36.307888 4.0894828
10.372207 -5.0001616 1.0547016
73.064232 36.238102 4.0989375
10.34086 -5.006249 1.0536885
73.809013 36.412148 4.1312037
10.260963 -4.984992 1.0502692
74.185028 36.369724 4.1449413
10.247403 -5.0029182 1.0501848
75.20546 36.666866 4.190351
10.203777 -5.0007482 1.0485386
75.513847 36.611248 4.2012477
10.168648 -5.0069375 1.0473988
76.20771 36.719479 4.2303338
10.101624 -4.9904513 1.0445706
76.360176 36.574291 4.2334714
10.070484 -4.9956274 1.0435574
77.058022 36.70528 4.2631936
10.044485 -5.0071392 1.0428821
77.404388 36.634487 4.2753625
79.685226 37.746883 4.3856435
9.9936018 -5.0013251 1.0408981
78.313683 36.843822 4.3148789
81.154793 38.220718 4.4520841
9.9396648 -4.9911618 1.038703
81.070198 37.956272 4.4437737
9.9036169 -4.9945469 1.0374789
79.642982 37.031517 4.3704648
81.210258 37.781815 4.4459782
9.8798103 -5.0058508 1.0368879
81.561401 37.707474 4.4583588
9.827692 -4.9961967 1.0347773
81.137207 37.283619 4.4338098
84.040787 38.656563 4.5733891
9.7933702 -5.0002136 1.0336375
82.629471 37.744637 4.5010128
9.7590742 -5.0040913 1.0324978
83.289055 37.808483 4.5281487
9.7047319 -4.9922266 1.0302606
85.035194 38.392033 4.6076479
87.012337 39.309353 4.7023683
9.672472 -4.9981246 1.0292474
84.976509 38.105164 4.600101
87.013618 39.043903 4.6975775
9.650053 -5.0085349 1.0286987
85.391319 38.05526 4.6155767
9.6071796 -5.0038295 1.0270524
88.702019 39.331158 4.7694869
9.5709705 -5.0065651 1.0258282
85.656097 37.684807 4.601819
89.387413 39.371422 4.7789845
9.5381565 -5.0094347 1.0247307
88.640411 38.784927 4.7390938
9.5082512 -5.0131607 1.0237598
88.788177 38.612507 4.7418799
9.4449577 -4.9964519 1.0211004
88.973389 38.426556 4.7459326
91.760727 39.662102 4.8778462
9.4106789 -4.9977446 1.0199184
89.203583 38.279755 4.7524753
92.680511 39.811012 4.916851
9.3745213 -4.9965386 1.0186099
92.75573 39.596001 4.916091
94.096428 40.18277 4.9794097
9.3401585 -4.999465 1.0174701
94.237656 39.961452 4.9811826
9.3063049 -5.0015793 1.0163304
93.939186 39.560593 4.9624405
9.2750235 -5.0033655 1.0152751
96.323578 40.333458 5.0704198
9.2467709 -5.009212 1.0144308
96.270256 40.033684 5.0632014
9.2051086 -5.005208 1.012869
96.815384 39.987946 5.0841389
9.1605206 -4.9968452 1.011096
98.061073 40.25547 5.1382976
9.118515 -4.9931364 1.0095341
9.0845947 -4.9931607 1.0083523
102.00089 41.327957 5.3134794
104.71023 42.450809 5.4403706
9.0574646 -4.9970512 1.007508
105.05064 42.315224 5.4197364
9.038311 -5.0097585 1.0071703
101.8055 40.678261 5.2640014
105.98793 42.387707 5.4581881
8.9958763 -5.0030012 1.0055239
8.9734879 -5.0100913 1.004933
109.80073 43.358044 5.6257057
8.9317627 -5.0054765 1.0033711
109.7821 43.027527 5.6196675
114.63358 44.969292 5.844255
8.9042683 -5.0094552 1.0025269
110.35633 42.957275 5.6414723
8.8733921 -5.0097442 1.0014715
110.73978 42.821129 5.6546388
8.8365526 -5.008286 0.99780858
110.75754 42.504082 5.6503615
8.7762108 -4.9875183 0.99520886
110.97311 42.276493 5.6554356
8.7513695 -4.9909387 0.99445403
111.4528 42.186302 5.6732564
8.7269487 -4.9985209 0.99382508
112.09998 42.110161 5.6980381
113.19498 42.530018 5.7484403
8.7099228 -5.0108128 0.99357349
113.62885 42.378494 5.763536
8.6769638 -5.0085621 0.99239939
116.88197 43.315083 5.9085364
8.6403198 -5.0061831 0.99109948
117.44677 43.188358 5.9293346
8.6176701 -5.0127664 0.99051249
116.30453 42.448753 5.8722234
118.07017 43.106022 5.9531937
8.592454 -5.0162354 0.98975766
116.51624 42.228699 5.8774648
8.551362 -5.0098014 0.98820621
118.82537 42.739845 5.9781852
8.51054 -5.0013919 0.9866128
8.4664822 -4.9891572 0.98480976
8.4611759 -5.0111566 0.98522902
8.4310913 -5.0109758 0.98422265
8.3910208 -5.0014606 0.98112738
8.375864 -5.0152373 0.98100215
8.3421268 -5.0116014 0.97979152
8.3196735 -5.0172133 0.97920716
8.2601299 -4.9925828 0.97657716
8.2536964 -5.0123515 0.97691119
8.235508 -5.0202641 0.97653544
8.1940708 -5.0102654 0.9749074
131.50626 43.163105 6.4462948
8.1571693 -5.0038986 0.97352982
8.1190691 -4.9943624 0.97202706
8.1054497 -5.0086617 0.97198528
8.071393 -5.0032649 0.97073293
8.0533085 -5.0106606 0.97035724
8.0308514 -5.0170627 0.96981454
7.9991808 -5.0133224 0.96651816
7.9796553 -5.0192099 0.96606207
7.9426627 -5.0123758 0.96469378
7.9037905 -5.0017142 0.96315956
7.8908744 -5.0131946 0.96307671
161.5939 48.534187 7.7368288
7.8555026 -5.0072637 0.96179128
161.66663 48.105999 7.7345014
7.8242874 -5.0039377 0.96071321
161.94489 47.756226 7.7415662
7.8120966 -5.0158815 0.96067178
162.19107 47.429417 7.8116994
7.7787848 -5.0103798 0.95946932
162.44914 47.072063 7.8179889
7.7319016 -4.9921803 0.957479
162.69705 46.710999 7.8238592
7.736927 -5.019814 0.95843267
162.96155 46.38736 7.830904
7.6982675 -5.0098348 0.95693994
163.31461 46.038193 7.8413448
7.6585107 -4.9966702 0.95532286
7.6641254 -5.0249214 0.95631802
7.6150298 -5.00456 0.95281267
7.598834 -5.013155 0.95256507
7.5859308 -5.0238914 0.95248246
7.5335221 -4.9996486 0.95017099
7.521585 -5.0120778 0.95017099
7.5009804 -5.0151639 0.94963437
7.4726562 -5.0135388 0.9487263
7.4399676 -5.0065393 0.94752926
7.4178305 -5.0068336 0.94686878
7.3889427 -5.0041971 0.94591945
7.371666 -5.0119529 0.94563049
7.3553405 -5.0186939 0.94534159
7.3242593 -5.012538 0.9442271
7.2911158 -5.0041218 0.94500786
7.2707262 -5.0064812 0.94446766
7.2523398 -5.01366 0.94413519
7.2308106 -5.0156579 0.94355333
7.2125039 -5.019908 0.94313776
7.1669488 -4.9988856 0.94114304
7.1414604 -4.9963984 0.94031185
7.1347427 -5.0123529 0.94060278
7.1117039 -5.014164 0.93997937
7.0755205 -5.0001369 0.9384833
7.0667453 -5.0138483 0.93864954
7.0417728 -5.0132804 0.9379015
7.0279908 -5.0235562 0.93781841
6.9911819 -5.0072198 0.93623918
6.9634981 -5.0023694 0.93463224
6.9557123 -5.0188909 0.93492246
6.9144893 -4.9971771 0.93305659
6.9231596 -5.0315928 0.93438345
6.8797932 -5.0090899 0.93243462
6.8637276 -5.0144577 0.9321444
6.8396912 -5.0138268 0.93143952
6.8296766 -5.0267715 0.93156385
6.8071079 -5.0247135 0.93085897
6.783783 -5.0245852 0.93019557
6.7575698 -5.0191364 0.92928338
6.738977 -5.0212274 0.92882729
6.7112474 -5.0157089 0.92787361
6.685173 -5.009984 0.92696136
6.6749711 -5.0214386 0.92704427
6.6467271 -5.0149078 0.92604911
6.6222019 -5.0115571 0.92526132
6.6081824 -5.0184255 0.92509544
6.5914521 -5.024991 0.92484665
6.5630746 -5.0157943 0.92376864
6.5434117 -5.0157905 0.92322958
6.5079269 -4.9997215 0.92173684
6.5097356 -5.0261812 0.92264909
6.4882512 -5.0237427 0.92198563
6.4659839 -5.0231714 0.92136371
6.4490399 -5.0270085 0.92103195
6.4202323 -5.0152931 0.91987097
6.3826823 -4.9955506 0.91821241
6.38061 -5.0173988 0.91764462
6.3507552 -5.00388 0.91640627
6.3433447 -5.0210938 0.91677785
6.3095975 -5.0043464 0.91533315
6.2878237 -5.0004668 0.91463137
202.48984 25.705515 9.2215405
6.291729 -5.0309677 0.91574585
200.54257 24.953636 9.1354189
6.2545376 -5.0093322 0.91405356
198.54054 24.205187 9.0470591
6.2358513 -5.0090961 0.91355819
196.65356 23.518866 8.9639235
6.2205429 -5.0160775 0.91339308
194.53946 22.758621 8.8708773
6.206779 -5.0230436 0.91326928
193.2307 22.14002 8.8125792
6.1792021 -5.0110469 0.91215479
193.43423 21.718119 8.8191299
6.1692495 -5.0248365 0.91236115
192.62476 21.12746 8.7821445
6.1542997 -5.0301147 0.91215479
190.42635 20.427427 8.6860304
6.116868 -5.0047035 0.90914047
188.64972 19.801088 8.608119
6.115715 -5.0300393 0.9099623
187.47456 19.191851 8.5557499
6.0761876 -5.0023885 0.90803105
185.94543 18.588869 8.4884949
6.0618076 -5.0070591 0.90782559
184.30304 17.999945 8.4165545
6.0477362 -5.0151048 0.90774345
205.71346 19.583454 9.3286839
6.0422444 -5.0337434 0.9082365
181.28055 16.783714 8.2837448
201.14534 18.644121 9.1316462
6.0052795 -5.0076571 0.90642858
176.34677 15.917843 8.0715723
204.42516 18.482321 9.269805
5.9968815 -5.022285 0.90671617
178.37393 15.660634 8.0715265
5.981544 -5.0274358 0.90651071
176.5547 15.061456 7.9931817
5.9654474 -5.0294747 0.90618199
175.42114 14.562482 7.9439449
5.9421268 -5.0234494 0.90540129
173.48465 13.970304 7.8608041
198.51721 16.009972 8.9160938
5.9097672 -5.0046492 0.90396315
190.82564 14.910398 8.5902548
196.54495 15.362062 8.8313131
5.8983002 -5.0128455 0.90396315
194.86459 14.78369 8.759037
5.8819919 -5.0172591 0.90371656
192.67197 14.120126 8.6650724
5.8711143 -5.0272837 0.90497255
5.8534288 -5.0266075 0.90451849
167.02171 11.443019 7.5820279
190.10216 13.043222 8.5541363
5.8326502 -5.0244808 0.90394062
188.86865 12.472627 8.5008001
5.815649 -5.0256214 0.9035691
164.1604 10.434299 7.4592438
186.98563 11.902507 8.4202833
5.7930374 -5.017549 0.90274358
162.81667 9.9771423 7.4016848
5.7784462 -5.0240541 0.90261972
161.37019 9.4742641 7.3397388
5.7493792 -5.0073109 0.90134013
160.26143 9.028595 7.2921419
185.57686 10.471845 8.3575583
5.7527294 -5.0369163 0.90245461
158.72154 8.5798588 7.1663241
184.43326 9.9863539 8.2383871
5.7359176 -5.040072 0.90216571
157.87692 8.1298904 7.1302109
182.75618 9.4262619 8.1674204
5.7119651 -5.0315194 0.90129888
181.42447 8.9093132 8.1109552
5.6906633 -5.0246692 0.90055591
155.65286 7.2772589 7.0359674
180.07898 8.4326391 8.0540438
5.6706181 -5.0216327 0.89997804
176.60397 7.8329601 7.9083714
178.65872 7.9250193 7.9940033
5.6549196 -5.0250349 0.89973032
152.92928 6.3961782 6.9210467
175.14601 7.3360696 7.8468289
5.6364255 -5.0220547 0.89919376
152.09436 6.015698 6.8856649
173.60149 6.8759975 7.7817926
5.6219416 -5.0282192 0.89620233
150.85449 5.5810876 6.833384
172.15219 6.3777966 7.7206964
5.6163378 -5.0458732 0.89669204
149.99271 5.19449 6.7969456
176.07716 6.1076608 7.8835921
5.5925608 -5.0345693 0.89575344
174.98386 5.6716862 7.8374858
5.5716486 -5.0306687 0.8951413
147.2513 4.3892221 6.6817818
169.4115 5.0565429 7.6048012
5.5375071 -5.0039086 0.89342731
146.44693 4.0193138 6.647862
172.42128 4.7391834 7.7296743
5.5297194 -5.0170045 0.893713
166.34712 4.193203 7.4762721
171.10417 4.3140888 7.6743875
5.5152187 -5.022769 0.89359057
144.189 3.2627218 6.5530901
169.95683 3.8507934 7.6261687
5.5058365 -5.0344849 0.8937946
142.93973 2.8970623 6.5277743
168.91452 3.4275706 7.6144056
5.4870348 -5.0301857 0.89322329
166.79327 3.005708 7.5253596
167.88295 3.0254552 7.5709438
5.4637289 -5.0217605 0.89240706
140.99506 2.1791711 6.4459105
166.75946 2.5793643 7.5236454
5.4425116 -5.0154376 0.89171332
139.69167 1.8164816 6.3911853
165.47064 2.1526287 7.4694915
5.4330392 -5.0247526 0.89183575
138.43182 1.4999194 6.3383369
5.419066 -5.0310745 0.89175415
137.27608 1.1380765 6.2898555
162.01045 1.3420198 7.3244143
5.4081059 -5.0412269 0.89187658
162.39764 0.94621879 7.3404932
164.50711 0.9583534 7.4287229
5.3925009 -5.0415993 0.89155006
135.09721 0.48370072 6.198565
163.50775 0.58175886 7.3868527
5.3688793 -5.0308199 0.89065224
133.74854 0.15148447 6.1421256
5.3579016 -5.0408578 0.89077473
132.49466 -0.17415184 6.0896854
5.335835 -5.0302 0.88991767
131.34058 -0.4692058 6.0414491
160.2077 -0.5799104 7.2488351
5.3158875 -5.0261927 0.88934636
129.69385 -0.79256153 5.9726443
159.49919 -0.98402017 7.2192893
5.3093567 -5.0425439 0.88979524
128.77829 -1.0897462 5.9344468
158.31284 -1.3502593 7.1697874
5.2874146 -5.0316982 0.88893825
127.56364 -1.3671925 5.8837614
157.4575 -1.699667 7.134161
5.2700129 -5.0317259 0.88857096
126.18108 -1.6724343 5.802309
156.29669 -2.0853438 7.0562377
5.2383814 -5.0049934 0.88693857
124.39718 -1.9405882 5.7282138
155.46584 -2.4410481 7.0218716
5.2264276 -5.0108004 0.8868978
123.17875 -2.1990862 5.67768
154.72029 -2.7797611 6.9910798
122.12977 -2.4899769 5.6342545
153.56337 -3.1500654 6.9432268
120.46026 -2.738169 5.5649934
144.39055 3.1618187 6.1384654
143.59244 2.7781072 6.1073065
163.37199 2.7846029 6.8717847
19.730843 30.01314 1.9860057
141.33453 2.0801284 6.0195646
19.819946 30.007612 1.9875523
140.08177 1.704529 5.9709411
163.52139 1.9989338 6.8771033
19.900761 29.967825 1.9978001
138.79762 1.3482108 5.9211478
160.48636 1.5665536 6.7595987
19.999138 29.964312 1.9996243
20.079922 29.943748 2.0005364
160.34776 0.8076815 6.7540159
20.176929 29.937157 2.0022464
135.48813 0.34469253 5.7929678
159.15688 0.4104999 6.7079196
20.244915 29.881725 2.0017524
156.11482 0.048213936 6.5903015
20.324146 29.858004 2.0025506
132.66623 -0.30038339 5.6588478
157.39986 -0.35255218 6.6102118
20.430145 29.858919 2.0047166
156.2608 -0.71907336 6.5664458
20.544777 29.886303 2.007947
20.622101 29.858482 2.0085928
20.720257 29.845125 2.0101509
20.826626 29.857395 2.0127354
126.63033 -1.7772672 5.4271436
20.892639 29.810642 2.0125451
153.5314 -2.5478823 6.4622111
20.992992 29.799734 2.0142553
124.0921 -2.3486383 5.3298903
152.63513 -2.8932734 6.427979
21.076607 29.774488 1.9982765
122.97618 -2.6050346 5.2871752
151.68178 -3.2188501 6.3915701
21.158581 29.752741 1.9992523
21.281586 29.776373 2.0025554
149.67262 -3.9249511 6.314961
21.363575 29.741398 2.0031185
148.89169 -4.2417459 6.2852707
21.418175 29.676212 2.0021424
117.00681 -3.6104996 5.0586619
147.95607 -4.5781298 6.2496877
21.56411 29.74 2.0072474
21.649826 29.70999 2.0080731
146.4063 -5.2210593 6.2186251
148.24844 -5.2874951 6.2898822
21.714874 29.660585 2.0078478
111.64059 -4.2505875 4.8742433
141.73917 -5.4140902 6.0386147
21.841915 29.686983 2.0113761
110.28268 -4.4572239 4.8221111
111.68865 -4.5149488 4.8765068
21.943081 29.685753 2.0134783
108.29993 -4.620059 4.7457995
22.012356 29.642199 2.0135531
106.71534 -4.8220658 4.6849532
144.98518 -6.58079 6.1658893
22.115513 29.630943 2.0153923
105.06995 -4.9932218 4.6217313
22.20219 29.606958 2.0164809
102.31674 -5.0906849 4.5156188
22.284939 29.583025 2.0174944
99.234749 -5.1860299 4.3968315
22.407261 29.598913 2.0275002
97.908707 -5.3451433 4.3459821
22.505028 29.590239 2.0293484
95.824097 -5.4448991 4.2657466
22.59948 29.582403 2.0311592
92.190186 -5.4676294 4.1255713
22.720226 29.594147 2.0341768
87.560577 -5.3922477 3.9467678
22.760475 29.501099 2.0321021
86.185188 -5.5074177 3.8939943
22.855598 29.487312 2.033762
82.648804 -5.4772696 3.7575154
83.917397 -5.5633903 3.8066678
23.01403 29.557598 2.0394959
80.770355 -5.5461831 3.6475134
23.102749 29.527525 2.0405142
77.962181 -5.5234017 3.5405188
23.225231 29.556961 2.0441732
74.881462 -5.4882245 3.42313
76.192223 -5.5869341 3.4733114
23.32309 29.533028 2.0456066
73.498291 -5.5556111 3.3706756
130.38673 -9.9768581 5.5490155
23.412479 29.508852 2.0468516
71.780167 -5.5828519 3.3053689
23.502464 29.491203 2.0483227
68.845985 -5.5213118 3.193531
128.83592 -10.47881 5.4915318
23.607231 29.475885 2.050209
68.086845 -5.6172643 3.164957
23.6875 29.438259 2.0508502
65.822304 -5.5718112 3.0786757
23.825008 29.484901 2.0414321
64.671555 -5.6338849 3.0351253
23.923122 29.459097 2.0428514
62.895245 -5.6203966 2.967546
24.002293 29.419069 2.0434117
61.69212 -5.6469908 2.9219093
24.093678 29.401306 2.0449429
59.767868 -5.6147532 2.8486671
24.196453 29.380909 2.0466609
59.03186 -5.6803141 2.8209496
24.282536 29.349539 2.0476692
57.177078 -5.6227589 2.750278
24.381031 29.340317 2.0496488
56.12431 -5.6560063 2.700047
24.470963 29.301853 2.050545
54.958363 -5.666573 2.6560478
24.570438 29.281567 2.0522256
53.651188 -5.6458764 2.6066003
24.641842 29.235771 2.0524871
53.105576 -5.7142034 2.5862873
24.746666 29.221897 2.0545039
52.020893 -5.7180767 2.5453649
122.25156 -13.765629 5.2304821
24.835468 29.186823 2.0555124
50.583824 -5.6658974 2.4909132
24.935387 29.17741 2.0575664
50.062298 -5.730176 2.4715271
122.54533 -14.395089 5.2443457
25.002377 29.108051 2.0570436
49.080776 -5.7265 2.4344969
25.113529 29.106668 2.0596206
47.720486 -5.6665754 2.382936
25.229259 29.116318 2.0626459
47.363995 -5.7406421 2.3698514
25.296616 29.047026 2.0621603
46.490765 -5.73735 2.3369355
119.76235 -15.217033 5.1433001
25.38554 29.016367 2.0633554
45.677383 -5.7335291 2.3062811
25.527092 29.057058 2.0679493
44.463169 -5.6845613 2.2603176
25.608883 29.005316 2.0683599
44.208279 -5.7525072 2.2632418
113.70407 -15.259032 4.9477763
25.687469 28.960857 2.0689201
43.489418 -5.7506537 2.2359776
111.78494 -15.253129 4.8749847
25.816051 28.983629 2.0726924
42.746925 -5.7539992 2.2078547
25.916824 28.954538 2.074261
41.575439 -5.6877089 2.1631117
26.032764 28.949284 2.0769126
41.116783 -5.7088265 2.1458569
26.131828 28.939926 2.0790415
40.536358 -5.7247834 2.123971
26.256969 28.939157 2.0820665
39.870792 -5.721137 2.0987611
26.375759 28.935734 2.084868
39.208508 -5.7074366 2.073626
26.440784 28.878635 2.0667348
38.5695 -5.7014375 2.0494246
26.566589 28.882755 2.0699067
38.236252 -5.7409329 2.0370624
26.693195 28.887169 2.0731153
37.881977 -5.7684031 2.0238414
26.779102 28.854137 2.0742586
37.423073 -5.7874694 2.0066237
40.868496 -6.3533697 2.140255
26.883392 28.825693 2.0759919
36.93462 -5.7924261 1.9882113
40.901344 -6.4537172 2.1421223
27.003765 28.82683 2.078979
36.405521 -5.7848086 1.9681927
40.899925 -6.5447021 2.1426451
27.168617 28.884676 2.0846956
35.731094 -5.7597203 1.9328281
40.936237 -6.6536479 2.1334362
27.273239 28.855005 2.0864291
35.331741 -5.772572 1.9179641
27.419075 28.883558 2.0908546
35.128155 -5.8148665 1.9106247
27.513649 28.858128 2.0924773
34.603966 -5.8084631 1.8909791
40.90517 -6.9379549 2.1341405
27.644848 28.857414 2.0957227
34.210762 -5.8168535 1.8763375
27.777779 28.869146 2.0993738
30.277813 -5.1685686 1.7249547
33.787544 -5.8147211 1.8605098
27.855728 28.823692 2.1000378
30.198219 -5.2285023 1.7223971
33.331192 -5.8136811 1.8434588
27.99509 28.830425 2.1037259
30.185162 -5.297924 1.7223971
32.680012 -5.7703528 1.8188461
28.129429 28.836348 2.1778133
32.483658 -5.8050437 1.8117663
28.23415 28.819742 2.1800942
32.252663 -5.838089 1.8033891
28.351643 28.805788 2.1828003
27.123272 -4.9054222 1.6053756
31.782326 -5.8228822 1.785745
28.454796 28.775536 2.1846557
26.877502 -4.9156971 1.5962942
71.62941 -13.835248 3.3295975
28.590599 28.791782 2.1887536
26.538582 -4.9133034 1.5836542
32.480595 -6.1136136 1.8139162
28.73951 28.804998 2.1931219
26.221809 -4.9089155 1.5718298
67.217224 -13.292467 3.1612382
28.835526 28.771065 2.1947069
25.922508 -4.9042625 1.5444751
30.491444 -5.8495655 1.7185627
28.928116 28.738668 2.1962531
25.625172 -4.9056282 1.5336243
30.069386 -5.8371305 1.703051
29.094765 28.769035 2.2016265
25.351837 -4.9059401 1.5236473
29.212234 28.756857 2.2044485
25.13158 -4.9140472 1.5156729
29.231682 -5.7935519 1.6721369
29.318363 28.737623 2.206768
24.828941 -4.9100509 1.5046036
29.519897 28.802486 2.214113
24.57793 -4.9113665 1.4954641
29.566628 28.713905 2.2128372
24.349422 -4.9142675 1.4871621
29.703941 28.726049 2.2169349
24.061531 -4.9093466 1.4766389
29.866299 28.74712 2.1570482
23.786175 -4.9014564 1.4665527
30.002075 28.750658 2.1607177
23.611794 -4.9154506 1.4603262
30.178059 28.795088 2.1665745
23.344795 -4.9092207 1.4505677
30.2803 28.757093 2.1682425
23.130215 -4.9139767 1.4428118
30.396168 28.732725 2.1706519
22.921425 -4.9148774 1.4352381
30.535297 28.742609 2.174618
22.687614 -4.9150009 1.426754
30.664375 28.725098 2.1775832
22.464653 -4.9124646 1.4365386
30.80798 28.732664 2.1816237
22.293186 -4.9194641 1.4302425
30.939384 28.732765 2.1851451
22.072075 -4.9194074 1.4220467
31.066772 28.71174 2.1879992
21.881386 -4.9218521 1.4150056
31.221272 28.728109 2.1925955
21.665722 -4.9150925 1.4069586
31.391991 28.765219 2.1981928
21.470535 -4.9184241 1.3997685
31.490631 28.713884 2.1994901
21.304745 -4.9244704 1.3936961
31.659698 28.742268 2.2048278
21.104572 -4.9188371 1.3862451
31.742088 28.690712 2.1938703
20.919155 -4.921875 1.3794276
31.889042 28.685173 2.1976962
20.73951 -4.9217138 1.3727963
32.091049 28.743048 2.2046857
20.590126 -4.9288244 1.3673571
32.187946 28.698704 2.2061572
20.398907 -4.9257364 1.3602788
32.35244 28.71323 2.2110128
20.248291 -4.932817 1.3548024
32.478302 28.690119 2.2138455
20.087402 -4.9326515 1.348879
32.588116 28.662298 2.2161262
19.902428 -4.9286532 1.3350323
32.765244 28.68652 2.2216074
19.736115 -4.928987 1.328984
32.902092 28.671993 2.2249918
19.572723 -4.9257526 1.3230094
32.97221 28.605595 2.2252126
19.429607 -4.9328971 1.317883
33.136208 28.609861 2.2298477
19.284698 -4.9352694 1.312646
33.288498 28.613445 2.2341516
19.130043 -4.9323535 1.3070034
33.405201 28.589062 2.2367635
18.978764 -4.9349174 1.3015451
33.588371 28.608574 2.2464151
18.818233 -4.9305072 1.2956812
33.654625 28.53163 2.2463045
18.684467 -4.9316478 1.2908499
33.886452 28.610218 2.254787
18.541897 -4.934597 1.2857234
33.97049 28.537613 2.2553034
18.393829 -4.9317646 1.280339
34.093941 28.51125 2.2581062
18.259396 -4.9307508 1.2754709
34.275135 28.541464 2.2639701
18.117119 -4.9316549 1.2703445
34.375111 28.482038 2.2652979
17.99432 -4.9362869 1.2580919
34.48616 28.437647 2.2673264
17.848991 -4.9299135 1.2528485
34.730953 28.521538 2.2763619
17.739098 -4.9374104 1.2490252
34.825378 28.461281 2.2775421
17.626476 -4.9434938 1.2450926
35.032299 28.498793 2.2843647
17.502796 -4.9422226 1.2406868
35.099205 28.424778 2.2844386
17.372227 -4.9429131 1.2360624
35.238377 28.396612 2.2877209
17.245476 -4.941021 1.2315474
35.47068 28.458778 2.2959085
17.12022 -4.9374404 1.2270685
35.6269 28.460112 2.2878165
17.022331 -4.9471402 1.2237186
35.765831 28.429468 2.2910373
16.871815 -4.9354496 1.2182567
35.900879 28.405991 2.2943311
16.777336 -4.9405608 1.2149796
36.102718 28.443699 2.301029
16.677803 -4.9481201 1.2115569
36.212082 28.386286 2.3027859
16.539619 -4.9387431 1.2065685
36.384922 28.392483 2.3079095
16.445343 -4.9424844 1.2032913
36.52747 28.378242 2.3116794
16.358814 -4.9530482 1.2032273
36.727966 28.394611 2.3178647
16.2145 -4.9397068 1.1979569
36.87204 28.374655 2.3215613
16.203157 -4.9716144 1.1979569
36.97496 28.326004 2.3233912
16.045223 -4.9552832 1.1921742
37.173809 28.338436 2.3294668
15.906285 -4.9435225 1.1871235
37.33913 28.32823 2.3340416
15.842683 -4.9556398 1.1850374
37.614735 28.417124 2.3441796
15.748842 -4.9592829 1.1817799
37.694538 28.336432 2.3446188
15.62579 -4.9516301 1.1773515
37.802017 28.277712 2.359453
15.541283 -4.9548693 1.1744235
37.907459 28.228182 2.3614075
15.44628 -4.9580793 1.1711295
38.066925 28.204315 2.3655748
15.344083 -4.9552236 1.1675062
38.267933 28.223442 2.3719921
15.241535 -4.9503212 1.1638463
38.409626 28.200779 2.3756802
15.174097 -4.9626703 1.1616502
38.688179 28.267191 2.3855271
15.085792 -4.9637933 1.1585759
38.931789 28.316088 2.3939359
14.990891 -4.9605241 1.1513035
39.064072 28.2836 2.3971443
14.885434 -4.95683 1.147599
39.502865 28.468403 2.4145517
14.814601 -4.9635305 1.1452383
39.570927 28.379251 2.4145517
14.709833 -4.9550004 1.1414975
39.855385 28.459747 2.424952
14.657185 -4.9709983 1.1398995
40.027046 28.436567 2.429599
14.551636 -4.9639907 1.1361586
40.260914 28.464916 2.4373069
14.464317 -4.9611597 1.1331079
40.567902 28.557961 2.4487028
14.392384 -4.9669251 1.1307108
40.671719 28.48695 2.4273295
14.320497 -4.9723625 1.1283138
40.898754 28.506704 2.4345756
14.236091 -4.9695706 1.1253719
41.032593 28.468197 2.4377432
14.146739 -4.9683061 1.1222849
41.097424 28.361614 2.4373426
14.05932 -4.9647436 1.1192341
41.14629 28.254862 2.4364688
13.990428 -4.967299 1.1169096
41.221416 28.172937 2.4369421
13.887856 -4.9590893 1.1132778
41.324242 28.093868 2.4383259
13.843808 -4.9729028 1.1095695
41.438213 28.033886 2.4404743
13.768807 -4.9718299 1.1070042
41.423885 27.887768 2.4368694
13.686188 -4.970973 1.1041858
41.506229 27.793848 2.4373426
13.618896 -4.9738369 1.1019458
41.690689 27.783152 2.4427319
13.525348 -4.9635067 1.0986216
41.838329 27.751411 2.4465551
13.453674 -4.9662704 1.0962369
41.841148 27.601036 2.4434237
13.401715 -4.9749503 1.0946109
42.024956 27.58812 2.4487762
13.317747 -4.9689822 1.0916843
42.317017 27.649179 2.4683619
13.257395 -4.974565 1.0897332
42.781425 27.821409 2.4863687
13.199746 -4.9810934 1.0878905
42.964981 27.798731 2.4915657
13.096082 -4.9637103 1.0841328
43.222427 27.836926 2.5003498
13.057163 -4.9782186 1.0830488
43.41367 27.817518 2.5058763
12.985501 -4.9773316 1.080628
43.593727 27.789701 2.5108905
12.921047 -4.9769874 1.0784601
43.71994 27.736525 2.5137086
12.845516 -4.9748216 1.0758948
44.101814 27.835951 2.5276895
12.794823 -4.981586 1.0743049
44.466103 27.933044 2.541085
12.736709 -4.9833579 1.07239
44.702938 27.949911 2.5488441
12.678972 -4.9887071 1.0705473
45.01503 27.997448 2.5596042
12.609929 -4.9858761 1.0681987
45.299393 28.036873 2.5693398
12.553723 -4.9877357 1.0663559
45.61834 28.103142 2.5807223
12.47685 -4.9828506 1.0637184
45.253742 27.709019 2.5366988
12.404521 -4.9773965 1.0612253
46.286663 28.22645 2.5792255
12.367736 -4.9879823 1.0601776
46.249443 28.060139 2.5747452
12.277989 -4.9756222 1.0569979
46.354824 27.967306 2.5761905
12.237702 -4.9863796 1.0558417
46.982166 28.2097 2.6006155
12.184434 -4.9880471 1.0541074
47.352661 28.298977 2.6139843
12.124166 -4.9882817 1.0521201
47.555424 28.269413 2.6197653
12.044838 -4.9784856 1.049338
47.934063 28.348188 2.6332064
11.982193 -4.9745026 1.0472062
47.613926 28.005148 2.6164412
11.939872 -4.9842105 1.0459777
47.978878 28.067705 2.6291597
11.882064 -4.9833498 1.0440627
48.195843 28.049843 2.6356635
11.838629 -4.988564 1.0427259
48.374443 28.01372 2.6406133
11.775654 -4.9867835 1.0406302
48.803356 28.110033 2.6560416
11.726642 -4.989759 1.0390766
48.993484 28.072506 2.6613531
11.677284 -4.9911742 1.0374868
49.282688 28.099531 2.6605487
11.619658 -4.9913759 1.0356079
49.730999 28.201359 2.6766515
11.574217 -4.9955573 1.0341988
50.036121 28.228271 2.6868238
11.51298 -4.9898424 1.0321032
50.185848 28.168428 2.6904545
11.428108 -4.9743557 1.0290681
50.501163 28.186357 2.7008066
11.393492 -4.984797 1.0281286
50.585552 28.074562 2.7014174
11.357269 -4.9919558 1.0270809
50.940575 28.131552 2.7137823
11.299556 -4.9893074 1.0271295
51.419952 28.24577 2.7311797
11.258173 -4.9954658 1.0258948
51.859535 28.334524 2.7468514
11.199892 -4.9897285 1.0238972
52.079788 28.308788 2.7534294
11.147534 -4.9892693 1.0221902
52.323437 28.282696 2.7607617
11.115608 -5.000133 1.0213549
