# .PCD v0.7 - Point Cloud Data file format
VERSION 0.7
FIELDS x y z
SIZE 4 4 4
TYPE F F F
COUNT 1 1 1
WIDTH 1606
HEIGHT 1
VIEWPOINT 0 0 0 1 0 0 0
POINTS 1606
DATA ascii
-36.359001 -62.900002 -6.0900002
-36.368999 -62.84 -6.0900002
-36.389999 -62.790001 -6.0999999
-36.389999 -62.740002 -6.1199999
-36.41 -62.68 -6.1199999
-36.470001 -62.630001 -6.1199999
-36.429001 -62.580002 -6.1500001
-36.418999 -62.52 -6.1500001
-36.509998 -62.470001 -6.1500001
-36.349998 -63.07 -6.0900002
-36.400002 -63.009998 -6.0900002
-36.450001 -62.950001 -6.0900002
-36.459999 -62.900002 -6.0900002
-36.479 -62.849998 -6.0999999
-36.470001 -62.799999 -6.1199999
-36.5 -62.740002 -6.1199999
-36.529999 -62.689999 -6.1199999
-36.580002 -62.630001 -6.1199999
-36.549 -62.580002 -6.1500001
-36.558998 -62.529999 -6.1500001
-36.52 -62.48 -6.1799998
-36.479 -62.43 -6.1999998
-36.509998 -63.119999 -6.0700002
-36.52 -63.07 -6.0700002
-36.539001 -63.02 -6.0900002
-36.580002 -62.959 -6.0900002
-36.580002 -62.91 -6.0900002
-36.558998 -62.860001 -6.1199999
-36.599998 -62.799999 -6.1199999
-36.599998 -62.75 -6.1199999
-36.639999 -62.700001 -6.1199999
-36.66 -62.639999 -6.1399999
-36.639999 -62.59 -6.1500001
-36.639999 -62.540001 -6.1700001
-36.609001 -62.490002 -6.1799998
-36.549 -62.439999 -6.21
-36.630001 -63.18 -6.0599999
-36.630001 -63.119999 -6.0700002
-36.650002 -63.07 -6.0700002
-36.66 -63.02 -6.0900002
-36.668999 -62.959 -6.0900002
-36.679001 -62.91 -6.0900002
-36.720001 -62.860001 -6.0999999
-36.720001 -62.810001 -6.1199999
-36.75 -62.75 -6.1199999
-36.738998 -62.700001 -6.1399999
-36.738998 -62.650002 -6.1500001
-36.759998 -62.599998 -6.1500001
-36.729 -62.540001 -6.1700001
-36.689999 -62.490002 -6.1999998
-36.580002 -62.439999 -6.23
-36.679001 -63.240002 -6.0700002
-36.729 -63.18 -6.0700002
-36.75 -63.130001 -6.0700002
-36.759998 -63.07 -6.0700002
-36.779999 -63.02 -6.0900002
-36.808998 -62.970001 -6.0900002
-36.808998 -62.919998 -6.0900002
-36.808998 -62.860001 -6.1199999
-36.82 -62.810001 -6.1199999
-36.859001 -62.759998 -6.1199999
-36.868999 -62.709 -6.1199999
-36.808998 -62.66 -6.1500001
-36.830002 -62.599998 -6.1700001
-36.799 -62.549999 -6.1799998
-36.75 -62.5 -6.21
-36.618999 -62.450001 -6.2600002
-36.400002 -62.389999 -6.3400002
-36.779999 -63.299999 -6.0599999
-36.830002 -63.25 -6.0599999
-36.82 -63.189999 -6.0700002
-36.849998 -63.139999 -6.0700002
-36.859001 -63.09 -6.0900002
-36.859001 -63.040001 -6.0900002
-36.868999 -62.98 -6.0999999
-36.889999 -62.93 -6.0999999
-36.918999 -62.880001 -6.1199999
-36.950001 -62.82 -6.1199999
-36.970001 -62.77 -6.1199999
-36.979 -62.720001 -6.1399999
-36.929001 -62.669998 -6.1500001
-36.939999 -62.619999 -6.1700001
-36.880001 -62.57 -6.1999998
-36.779999 -62.509998 -6.23
-36.509998 -62.459 -6.3200002
-36.439999 -62.400002 -6.3699999
-36.868999 -63.360001 -6.0599999
-36.889999 -63.310001 -6.0599999
-36.91 -63.259998 -6.0700002
-36.91 -63.200001 -6.0700002
-36.929001 -63.150002 -6.0900002
-37 -63.09 -6.0700002
-36.988998 -63.040001 -6.0900002
-37.029999 -62.990002 -6.0900002
-37.02 -62.939999 -6.0999999
-37.049 -62.889999 -6.0999999
-37.039001 -62.830002 -6.1199999
-37.058998 -62.779999 -6.1199999
-37.039001 -62.73 -6.1500001
-37.049 -62.68 -6.1500001
-36.988998 -62.630001 -6.1799998
-36.929001 -62.580002 -6.21
-36.830002 -62.52 -6.2600002
-36.5 -62.459 -6.3699999
-36.429001 -62.41 -6.3899999
-36.929001 -63.419998 -6.0599999
-36.918999 -63.369999 -6.0700002
-36.950001 -63.32 -6.0700002
-37 -63.259998 -6.0700002
-36.988998 -63.209 -6.0900002
-37.009998 -63.150002 -6.0900002
-37.009998 -63.099998 -6.0999999
-37.07 -63.049999 -6.0999999
-37.099998 -62.990002 -6.0999999
-37.099998 -62.939999 -6.1199999
-37.099998 -62.889999 -6.1199999
-37.150002 -62.84 -6.1199999
-37.179001 -62.790001 -6.1199999
-37.130001 -62.740002 -6.1500001
-37.109001 -62.68 -6.1799998
-37.07 -62.630001 -6.1999998
-36.929001 -62.580002 -6.2600002
-36.779999 -62.52 -6.3099999
-36.668999 -62.470001 -6.3499999
-36.429001 -62.41 -6.4299998
-36.970001 -63.490002 -6.0700002
-37.009998 -63.43 -6.0700002
-37.039001 -63.369999 -6.0700002
-37.049 -63.32 -6.0900002
-37.07 -63.27 -6.0900002
-37.09 -63.209 -6.0900002
-37.09 -63.16 -6.0999999
-37.139999 -63.110001 -6.0999999
-37.16 -63.060001 -6.1199999
-37.179001 -63 -6.1199999
-37.220001 -62.950001 -6.1199999
-37.220001 -62.900002 -6.1199999
-37.25 -62.849998 -6.1399999
-37.209999 -62.799999 -6.1500001
-37.209999 -62.740002 -6.1700001
-37.168999 -62.689999 -6.1999998
-37.07 -62.639999 -6.23
-36.91 -62.59 -6.3000002
-36.799 -62.529999 -6.3400002
-36.689999 -62.470001 -6.3899999
-36.5 -62.41 -6.46
-37.058998 -63.549999 -6.0700002
-37.09 -63.490002 -6.0700002
-37.07 -63.439999 -6.0900002
-37.130001 -63.380001 -6.0900002
-37.118999 -63.330002 -6.0900002
-37.150002 -63.279999 -6.0999999
-37.179001 -63.220001 -6.0999999
-37.179001 -63.169998 -6.1199999
-37.220001 -63.119999 -6.1199999
-37.25 -63.060001 -6.1199999
-37.279999 -63.009998 -6.1199999
-37.27 -62.959 -6.1399999
-37.279999 -62.91 -6.1500001
-37.289001 -62.860001 -6.1500001
-37.289001 -62.810001 -6.1700001
-37.259998 -62.75 -6.1799998
-37.209999 -62.700001 -6.21
-37.080002 -62.650002 -6.2600002
-36.950001 -62.59 -6.3200002
-36.859001 -62.540001 -6.3499999
-36.700001 -62.48 -6.4200001
-36.488998 -62.41 -6.5
-37.130001 -63.610001 -6.0700002
-37.16 -63.549999 -6.0700002
-37.150002 -63.5 -6.0900002
-37.200001 -63.439999 -6.0900002
-37.209999 -63.389999 -6.0900002
-37.209999 -63.34 -6.0999999
-37.25 -63.279999 -6.0999999
-37.279999 -63.23 -6.0999999
-37.299 -63.18 -6.1199999
-37.330002 -63.119999 -6.1199999
-37.349998 -63.07 -6.1199999
-37.380001 -63.02 -6.1399999
-37.380001 -62.970001 -6.1500001
-37.380001 -62.919998 -6.1500001
-37.359001 -62.869999 -6.1799998
-37.330002 -62.82 -6.1999998
-37.289001 -62.759998 -6.21
-37.209999 -62.709 -6.25
-37.118999 -62.66 -6.2800002
-37.02 -62.599998 -6.3400002
-36.880001 -62.540001 -6.3899999
-36.709999 -62.48 -6.46
-36.470001 -62.41 -6.5300002
-37.179001 -63.669998 -6.0700002
-37.200001 -63.619999 -6.0900002
-37.229 -63.560001 -6.0900002
-37.279999 -63.5 -6.0900002
-37.279999 -63.450001 -6.0900002
-37.32 -63.400002 -6.0900002
-37.349998 -63.34 -6.0999999
-37.349998 -63.290001 -6.1199999
-37.368999 -63.240002 -6.1199999
-37.389999 -63.18 -6.1199999
-37.429001 -63.130001 -6.1199999
-37.459999 -63.080002 -6.1399999
-37.459999 -63.029999 -6.1500001
-37.439999 -62.98 -6.1700001
-37.429001 -62.93 -6.1799998
-37.41 -62.869999 -6.1999998
-37.34 -62.82 -6.23
-37.279999 -62.77 -6.2600002
-37.209999 -62.709 -6.2800002
-37.130001 -62.66 -6.3200002
-37.009998 -62.599998 -6.3800001
-36.91 -62.540001 -6.4200001
-36.668999 -62.48 -6.5
-36.429001 -62.400002 -6.5900002
-36.459999 -62.349998 -6.5999999
-37.259998 -63.73 -6.0700002
-37.34 -63.669998 -6.0700002
-37.359001 -63.610001 -6.0700002
-37.380001 -63.560001 -6.0900002
-37.41 -63.5 -6.0900002
-37.41 -63.450001 -6.0900002
-37.439999 -63.400002 -6.0999999
-37.41 -63.349998 -6.1199999
-37.418999 -63.299999 -6.1399999
-37.450001 -63.240002 -6.1399999
-37.470001 -63.189999 -6.1500001
-37.509998 -63.139999 -6.1500001
-37.529999 -63.09 -6.1500001
-37.52 -63.029999 -6.1700001
-37.529999 -62.98 -6.1799998
-37.470001 -62.93 -6.1999998
-37.389999 -62.880001 -6.23
-37.349998 -62.830002 -6.2600002
-37.27 -62.77 -6.3000002
-37.220001 -62.720001 -6.3200002
-37.16 -62.66 -6.3499999
-37.029999 -62.599998 -6.4099998
-36.830002 -62.540001 -6.48
-36.66 -62.470001 -6.5500002
-36.470001 -62.400002 -6.6199999
-36.539001 -62.349998 -6.5999999
-37.380001 -63.779999 -6.0700002
-37.400002 -63.73 -6.0700002
-37.41 -63.68 -6.0900002
-37.429001 -63.619999 -6.0900002
-37.5 -63.560001 -6.0900002
-37.5 -63.509998 -6.0900002
-37.52 -63.459 -6.0999999
-37.558998 -63.41 -6.0999999
-37.539001 -63.349998 -6.1199999
-37.558998 -63.299999 -6.1199999
-37.57 -63.25 -6.1399999
-37.57 -63.200001 -6.1500001
-37.59 -63.150002 -6.1500001
-37.618999 -63.099998 -6.1500001
-37.580002 -63.040001 -6.1799998
-37.509998 -62.990002 -6.21
-37.5 -62.939999 -6.23
-37.418999 -62.889999 -6.2600002
-37.32 -62.830002 -6.3099999
-37.289001 -62.779999 -6.3200002
-37.289001 -62.720001 -6.3400002
-37.179001 -62.669998 -6.3899999
-37.009998 -62.599998 -6.4499998
-36.799 -62.540001 -6.5300002
-36.650002 -62.470001 -6.5900002
-36.618999 -62.41 -6.5999999
-36.580002 -62.349998 -6.6399999
-37.439999 -63.849998 -6.0700002
-37.459999 -63.799999 -6.0900002
-37.509998 -63.740002 -6.0900002
-37.52 -63.68 -6.0900002
-37.52 -63.630001 -6.0999999
-37.549 -63.580002 -6.0999999
-37.558998 -63.52 -6.1199999
-37.59 -63.470001 -6.1199999
-37.599998 -63.419998 -6.1199999
-37.650002 -63.360001 -6.1199999
-37.66 -63.310001 -6.1399999
-37.668999 -63.259998 -6.1500001
-37.679001 -63.209 -6.1500001
-37.650002 -63.16 -6.1799998
-37.66 -63.110001 -6.1799998
-37.599998 -63.060001 -6.21
-37.57 -63 -6.23
-37.52 -62.950001 -6.2600002
-37.308998 -62.889999 -6.3400002
-37.330002 -62.84 -6.3400002
-37.32 -62.790001 -6.3499999
-37.27 -62.73 -6.3899999
-37.179001 -62.669998 -6.4299998
-36.988998 -62.610001 -6.5
-36.859001 -62.540001 -6.5500002
-36.700001 -62.470001 -6.5999999
-36.84 -62.419998 -6.5700002
-37.479 -63.91 -6.0900002
-37.52 -63.860001 -6.0900002
-37.549 -63.799999 -6.0900002
-37.59 -63.740002 -6.0900002
-37.618999 -63.689999 -6.0900002
-37.630001 -63.639999 -6.0999999
-37.639999 -63.580002 -6.1199999
-37.66 -63.529999 -6.1199999
-37.668999 -63.48 -6.1399999
-37.720001 -63.419998 -6.1199999
-37.729 -63.369999 -6.1500001
-37.709999 -63.32 -6.1500001
-37.738998 -63.27 -6.1700001
-37.720001 -63.220001 -6.1799998
-37.700001 -63.16 -6.1999998
-37.650002 -63.110001 -6.23
-37.630001 -63.060001 -6.23
-37.429001 -63.009998 -6.3099999
-37.479 -62.950001 -6.3099999
-37.279999 -62.900002 -6.3899999
-37.349998 -62.84 -6.3800001
-37.299 -62.790001 -6.4099998
-37.238998 -62.73 -6.4299998
-37.099998 -62.669998 -6.4899998
-36.979 -62.599998 -6.5300002
-36.849998 -62.540001 -6.5900002
-36.799 -62.470001 -6.6199999
-36.738998 -62.41 -6.6399999
-37.450001 -63.98 -6.1199999
-37.470001 -63.93 -6.1199999
-37.5 -63.869999 -6.1199999
-37.558998 -63.810001 -6.1199999
-37.558998 -63.759998 -6.1399999
-37.609001 -63.700001 -6.1399999
-37.609001 -63.650002 -6.1500001
-37.679001 -63.59 -6.1500001
-37.720001 -63.540001 -6.1500001
-37.738998 -63.48 -6.1500001
-37.759998 -63.43 -6.1500001
-37.77 -63.380001 -6.1700001
-37.77 -63.330002 -6.1799998
-37.789001 -63.27 -6.1799998
-37.738998 -63.220001 -6.21
-37.709999 -63.169998 -6.23
-37.679001 -63.119999 -6.25
-37.52 -63.07 -6.3099999
-37.488998 -63.009998 -6.3200002
-37.52 -62.959 -6.3400002
-37.209999 -62.889999 -6.4299998
-37.349998 -62.84 -6.4200001
-37.308998 -62.790001 -6.4299998
-37.179001 -62.720001 -6.4899998
-37.099998 -62.66 -6.5300002
-36.970001 -62.599998 -6.5700002
-36.84 -62.529999 -6.6399999
-36.970001 -62.48 -6.5999999
-36.630001 -62.389999 -6.73
-37.400002 -64.059998 -6.1500001
-37.439999 -64 -6.1500001
-37.459999 -63.950001 -6.1700001
-37.5 -63.889999 -6.1700001
-37.539001 -63.830002 -6.1700001
-37.549 -63.77 -6.1799998
-37.618999 -63.720001 -6.1700001
-37.639999 -63.66 -6.1799998
-37.668999 -63.610001 -6.1799998
-37.709999 -63.549999 -6.1799998
-37.729 -63.5 -6.1799998
-37.789001 -63.439999 -6.1799998
-37.830002 -63.389999 -6.1799998
-37.830002 -63.34 -6.1999998
-37.808998 -63.290001 -6.21
-37.789001 -63.23 -6.23
-37.709999 -63.18 -6.2600002
-37.639999 -63.130001 -6.3000002
-37.52 -63.07 -6.3499999
-37.59 -63.02 -6.3400002
-37.389999 -62.959 -6.4099998
-37.229 -62.900002 -6.46
-37.41 -62.849998 -6.4299998
-37.289001 -62.790001 -6.48
-37.200001 -62.73 -6.52
-37.118999 -62.669998 -6.5599999
-36.988998 -62.599998 -6.5999999
-37.150002 -62.549999 -6.5700002
-36.868999 -62.470001 -6.6799998
-37.400002 -64.129997 -6.1799998
-37.429001 -64.07 -6.1799998
-37.470001 -64.010002 -6.1799998
-37.488998 -63.959 -6.1799998
-37.529999 -63.900002 -6.1799998
-37.57 -63.84 -6.1999998
-37.609001 -63.779999 -6.1999998
-37.650002 -63.73 -6.1999998
-37.66 -63.669998 -6.21
-37.700001 -63.619999 -6.21
-37.720001 -63.560001 -6.21
-37.77 -63.509998 -6.21
-37.77 -63.450001 -6.21
-37.808998 -63.400002 -6.21
-37.808998 -63.349998 -6.23
-37.808998 -63.299999 -6.25
-37.77 -63.240002 -6.2600002
-37.639999 -63.189999 -6.3200002
-37.639999 -63.139999 -6.3400002
-37.679001 -63.080002 -6.3400002
-37.57 -63.02 -6.3800001
-37.368999 -62.959 -6.46
-37.5 -62.91 -6.4299998
-37.389999 -62.849998 -6.46
-37.32 -62.790001 -6.5
-37.238998 -62.73 -6.5500002
-37.099998 -62.66 -6.5999999
-37.07 -62.599998 -6.6300001
-37.118999 -62.549999 -6.6199999
-36.929001 -62.470001 -6.6999998
-37.349998 -64.199997 -6.21
-37.380001 -64.139999 -6.21
-37.429001 -64.080002 -6.21
-37.459999 -64.019997 -6.23
-37.509998 -63.959 -6.21
-37.52 -63.91 -6.23
-37.57 -63.849998 -6.23
-37.599998 -63.790001 -6.23
-37.630001 -63.740002 -6.23
-37.679001 -63.68 -6.23
-37.689999 -63.619999 -6.25
-37.720001 -63.57 -6.25
-37.75 -63.52 -6.2600002
-37.789001 -63.459 -6.2600002
-37.830002 -63.41 -6.2600002
-37.84 -63.349998 -6.2600002
-37.830002 -63.299999 -6.2800002
-37.639999 -63.25 -6.3499999
-37.650002 -63.189999 -6.3499999
-37.66 -63.139999 -6.3699999
-37.639999 -63.080002 -6.3899999
-37.57 -63.029999 -6.4200001
-37.529999 -62.970001 -6.4499998
-37.289001 -62.900002 -6.5300002
-37.400002 -62.849998 -6.5
-37.330002 -62.790001 -6.5300002
-37.200001 -62.720001 -6.5999999
-37.168999 -62.66 -6.6199999
-37.209999 -62.599998 -6.6199999
-37.179001 -62.540001 -6.6399999
-37.32 -64.279999 -6.25
-37.368999 -64.209 -6.25
-37.389999 -64.150002 -6.25
-37.459999 -64.089996 -6.25
-37.470001 -64.029999 -6.2600002
-37.5 -63.98 -6.2600002
-37.539001 -63.919998 -6.2600002
-37.558998 -63.860001 -6.2600002
-37.599998 -63.799999 -6.2600002
-37.618999 -63.75 -6.2800002
-37.679001 -63.689999 -6.2800002
-37.679001 -63.639999 -6.2800002
-37.729 -63.580002 -6.2800002
-37.759998 -63.52 -6.2800002
-37.779999 -63.470001 -6.3000002
-37.808998 -63.41 -6.3000002
-37.82 -63.360001 -6.3099999
-37.82 -63.310001 -6.3200002
-37.689999 -63.25 -6.3699999
-37.558998 -63.189999 -6.4200001
-37.639999 -63.139999 -6.4099998
-37.639999 -63.09 -6.4200001
-37.59 -63.029999 -6.4499998
-37.459999 -62.970001 -6.5
-37.400002 -62.900002 -6.5300002
-37.368999 -62.849998 -6.5599999
-37.289001 -62.779999 -6.5999999
-37.220001 -62.720001 -6.6300001
-37.32 -62.669998 -6.5999999
-37.229 -62.599998 -6.6399999
-37.16 -62.540001 -6.6799998
-37.25 -64.349998 -6.2800002
-37.308998 -64.290001 -6.2800002
-37.368999 -64.220001 -6.2800002
-37.389999 -64.160004 -6.2800002
-37.429001 -64.099998 -6.2800002
-37.470001 -64.040001 -6.2800002
-37.509998 -63.98 -6.3000002
-37.580002 -63.919998 -6.2800002
-37.630001 -63.860001 -6.2800002
-37.609001 -63.810001 -6.3099999
-37.679001 -63.75 -6.3000002
-37.650002 -63.700001 -6.3200002
-37.75 -63.639999 -6.3000002
-37.700001 -63.59 -6.3200002
-37.779999 -63.529999 -6.3200002
-37.82 -63.470001 -6.3200002
-37.84 -63.419998 -6.3200002
-37.849998 -63.369999 -6.3400002
-37.830002 -63.310001 -6.3499999
-37.779999 -63.259998 -6.3800001
-37.66 -63.200001 -6.4299998
-37.738998 -63.139999 -6.4200001
-37.630001 -63.080002 -6.46
-37.599998 -63.029999 -6.4899998
-37.539001 -62.970001 -6.52
-37.439999 -62.900002 -6.5599999
-37.359001 -62.84 -6.5999999
-37.380001 -62.779999 -6.5999999
-37.368999 -62.73 -6.6199999
-37.330002 -62.66 -6.6399999
-37.25 -62.599998 -6.6799998
-37.130001 -62.52 -6.7399998
-37.229 -64.419998 -6.3200002
-37.299 -64.360001 -6.3099999
-37.32 -64.290001 -6.3200002
-37.380001 -64.230003 -6.3200002
-37.418999 -64.169998 -6.3200002
-37.488998 -64.110001 -6.3099999
-37.52 -64.050003 -6.3200002
-37.558998 -63.990002 -6.3200002
-37.59 -63.93 -6.3200002
-37.599998 -63.869999 -6.3400002
-37.639999 -63.810001 -6.3400002
-37.66 -63.759998 -6.3400002
-37.709999 -63.700001 -6.3400002
-37.720001 -63.639999 -6.3499999
-37.738998 -63.59 -6.3499999
-37.759998 -63.529999 -6.3699999
-37.779999 -63.48 -6.3699999
-37.808998 -63.419998 -6.3699999
-37.82 -63.369999 -6.3800001
-37.82 -63.310001 -6.3899999
-37.709999 -63.25 -6.4299998
-37.759998 -63.200001 -6.4299998
-37.668999 -63.139999 -6.48
-37.618999 -63.080002 -6.5
-37.59 -63.02 -6.5300002
-37.479 -62.959 -6.5700002
-37.418999 -62.900002 -6.5999999
-37.5 -62.849998 -6.5999999
-37.439999 -62.779999 -6.6300001
-37.389999 -62.720001 -6.6599998
-37.34 -62.650002 -6.6799998
-37.229 -62.580002 -6.7399998
-37.150002 -62.509998 -6.7800002
-37.209999 -64.489998 -6.3499999
-37.238998 -64.43 -6.3499999
-37.279999 -64.370003 -6.3499999
-37.34 -64.300003 -6.3499999
-37.349998 -64.239998 -6.3699999
-37.41 -64.18 -6.3499999
-37.459999 -64.120003 -6.3499999
-37.5 -64.059998 -6.3499999
-37.539001 -64 -6.3699999
-37.580002 -63.939999 -6.3699999
-37.59 -63.880001 -6.3800001
-37.57 -63.82 -6.3899999
-37.549 -63.77 -6.4099998
-37.609001 -63.709 -6.4099998
-37.720001 -63.650002 -6.3899999
-37.738998 -63.599998 -6.3899999
-37.789001 -63.540001 -6.3899999
-37.808998 -63.48 -6.3899999
-37.830002 -63.43 -6.4099998
-37.830002 -63.369999 -6.4200001
-37.799 -63.32 -6.4299998
-37.808998 -63.259998 -6.4499998
-37.700001 -63.200001 -6.5
-37.66 -63.139999 -6.52
-37.639999 -63.080002 -6.5300002
-37.549 -63.02 -6.5700002
-37.509998 -62.959 -6.5999999
-37.609001 -62.91 -6.5900002
-37.509998 -62.84 -6.6399999
-37.418999 -62.77 -6.6799998
-37.380001 -62.709 -6.6999998
-37.349998 -62.650002 -6.73
-37.220001 -62.57 -6.7800002
-37.029999 -62.490002 -6.8499999
-37.150002 -64.57 -6.3899999
-37.200001 -64.5 -6.3899999
-37.27 -64.440002 -6.3899999
-37.299 -64.370003 -6.3899999
-37.349998 -64.309998 -6.3899999
-37.380001 -64.25 -6.3899999
-37.439999 -64.18 -6.3899999
-37.439999 -64.129997 -6.4099998
-37.238998 -64.080002 -6.48
-37.150002 -64.019997 -6.52
-37.07 -63.970001 -6.5500002
-37.099998 -63.91 -6.5599999
-37.130001 -63.84 -6.5599999
-36.988998 -63.790001 -6.6199999
-37.029999 -63.720001 -6.6199999
-37.179001 -63.66 -6.5900002
-37.359001 -63.599998 -6.5500002
-37.77 -63.540001 -6.4299998
-37.799 -63.48 -6.4299998
-37.82 -63.43 -6.4499998
-37.779999 -63.369999 -6.48
-37.789001 -63.32 -6.4899998
-37.720001 -63.259998 -6.52
-37.759998 -63.200001 -6.52
-37.700001 -63.139999 -6.5500002
-37.609001 -63.080002 -6.5900002
-37.539001 -63.009998 -6.6300001
-37.618999 -62.959 -6.6199999
-37.599998 -62.900002 -6.6399999
-37.488998 -62.830002 -6.6799998
-37.41 -62.77 -6.71
-37.380001 -62.700001 -6.75
-37.32 -62.639999 -6.7800002
-37.118999 -62.549999 -6.8499999
-37.099998 -64.650002 -6.4299998
-37.139999 -64.580002 -6.4299998
-37.200001 -64.510002 -6.4299998
-37.220001 -64.449997 -6.4299998
-37.289001 -64.389999 -6.4299998
-37.308998 -64.32 -6.4299998
-37.41 -64.25 -6.4299998
-37.429001 -64.190002 -6.4299998
-37.27 -64.139999 -6.4899998
-37.168999 -64.089996 -6.5300002
-37.118999 -64.029999 -6.5700002
-37.02 -63.970001 -6.5999999
-37.099998 -63.91 -6.5999999
-37.488998 -63.84 -6.5
-37.539001 -63.779999 -6.5
-37.549 -63.720001 -6.5
-37.5 -63.66 -6.5300002
-37.299 -63.599998 -6.5999999
-37.529999 -63.540001 -6.5599999
-37.82 -63.490002 -6.48
-37.808998 -63.43 -6.4899998
-37.830002 -63.380001 -6.5
-37.799 -63.32 -6.5300002
-37.82 -63.259998 -6.5300002
-37.729 -63.200001 -6.5700002
-37.679001 -63.139999 -6.5999999
-37.700001 -63.080002 -6.5999999
-37.709999 -63.029999 -6.6199999
-37.639999 -62.959 -6.6399999
-37.549 -62.900002 -6.6999998
-37.529999 -62.830002 -6.71
-37.359001 -62.759998 -6.7800002
-37.368999 -62.700001 -6.7800002
-37.220001 -62.619999 -6.8499999
-37.080002 -64.720001 -6.46
-37.139999 -64.650002 -6.46
-37.179001 -64.589996 -6.46
-37.189999 -64.529999 -6.46
-37.220001 -64.459 -6.48
-37.27 -64.400002 -6.48
-37.330002 -64.330002 -6.48
-37.349998 -64.269997 -6.48
-37.41 -64.209 -6.48
-37.229 -64.160004 -6.5500002
-37.109001 -64.099998 -6.5900002
-37.07 -64.040001 -6.6199999
-37.099998 -63.98 -6.6300001
-37.509998 -63.900002 -6.52
-37.549 -63.84 -6.52
-37.609001 -63.779999 -6.52
-37.609001 -63.720001 -6.5300002
-37.599998 -63.669998 -6.5500002
-37.549 -63.610001 -6.5700002
-37.238998 -63.540001 -6.6799998
-37.799 -63.490002 -6.52
-37.82 -63.439999 -6.5300002
-37.830002 -63.380001 -6.5300002
-37.830002 -63.32 -6.5599999
-37.779999 -63.259998 -6.5700002
-37.738998 -63.200001 -6.5999999
-37.84 -63.150002 -6.5900002
-37.759998 -63.09 -6.6300001
-37.709999 -63.02 -6.6599998
-37.618999 -62.959 -6.6999998
-37.529999 -62.889999 -6.75
-37.418999 -62.759998 -6.8099999
-37.029999 -64.800003 -6.5
-37.07 -64.730003 -6.5
-37.099998 -64.660004 -6.5
-37.16 -64.589996 -6.5
-37.189999 -64.529999 -6.5
-37.238998 -64.459 -6.5
-37.259998 -64.400002 -6.52
-37.32 -64.330002 -6.52
-37.380001 -64.269997 -6.52
-37.32 -64.209 -6.5300002
-37.189999 -64.160004 -6.5999999
-37.099998 -64.099998 -6.6399999
-37.02 -64.040001 -6.6700001
-37.470001 -63.959 -6.5599999
-37.488998 -63.900002 -6.5599999
-37.539001 -63.84 -6.5599999
-37.59 -63.779999 -6.5599999
-37.650002 -63.720001 -6.5599999
-37.630001 -63.66 -6.5700002
-37.59 -63.599998 -6.5999999
-37.400002 -63.540001 -6.6700001
-37.789001 -63.490002 -6.5700002
-37.799 -63.43 -6.5700002
-37.84 -63.369999 -6.5700002
-37.789001 -63.310001 -6.5999999
-37.84 -63.259998 -6.5999999
-37.849998 -63.200001 -6.6199999
-37.82 -63.139999 -6.6399999
-37.720001 -63.07 -6.6799998
-37.700001 -63.009998 -6.6999998
-37.549 -62.939999 -6.77
-36.900002 -64.879997 -6.5599999
-36.939999 -64.809998 -6.5599999
-37.02 -64.730003 -6.5500002
-37.109001 -64.660004 -6.5300002
-37.16 -64.589996 -6.5300002
-37.209999 -64.529999 -6.5300002
-37.238998 -64.459 -6.5500002
-37.259998 -64.400002 -6.5599999
-37.299 -64.330002 -6.5599999
-37.359001 -64.269997 -6.5599999
-37.32 -64.209 -6.5700002
-37.16 -64.160004 -6.6399999
-37.09 -64.099998 -6.6799998
-37.450001 -64.019997 -6.5900002
-37.5 -63.959 -6.5900002
-37.539001 -63.900002 -6.5900002
-37.59 -63.84 -6.5900002
-37.599998 -63.779999 -6.5999999
-37.639999 -63.720001 -6.5999999
-37.689999 -63.66 -6.5999999
-37.639999 -63.599998 -6.6300001
-37.57 -63.540001 -6.6599998
-37.82 -63.490002 -6.5999999
-37.799 -63.43 -6.6199999
-37.849998 -63.369999 -6.6199999
-37.900002 -63.310001 -6.6199999
-37.868999 -63.25 -6.6399999
-37.868999 -63.189999 -6.6399999
-37.75 -63.130001 -6.6999998
-37.729 -63.07 -6.71
-37.529999 -62.990002 -6.8000002
-38.189999 -64.790001 -6.23
-38.279999 -64.730003 -6.21
-38.308998 -64.669998 -6.21
-38.330002 -64.610001 -6.23
-38.32 -64.559998 -6.23
-38.34 -64.5 -6.25
-38.380001 -64.440002 -6.25
-37.220001 -64.470001 -6.5900002
-37.25 -64.410004 -6.5999999
-37.32 -64.339996 -6.5900002
-37.349998 -64.279999 -6.5999999
-37.25 -64.220001 -6.6399999
-37.16 -64.160004 -6.6799998
-37.09 -64.099998 -6.71
-37.439999 -64.029999 -6.6300001
-37.488998 -63.959 -6.6199999
-37.509998 -63.900002 -6.6300001
-37.558998 -63.84 -6.6300001
-37.599998 -63.779999 -6.6399999
-37.679001 -63.720001 -6.6199999
-37.689999 -63.66 -6.6300001
-37.689999 -63.599998 -6.6399999
-37.630001 -63.540001 -6.6799998
-37.82 -63.490002 -6.6300001
-37.77 -63.43 -6.6599998
-37.939999 -63.380001 -6.6300001
-37.918999 -63.32 -6.6399999
-37.889999 -63.259998 -6.6700001
-37.849998 -63.189999 -6.6799998
-37.808998 -63.130001 -6.71
-37.618999 -63.049999 -6.7800002
-38.380001 -64.839996 -6.1999998
-38.389999 -64.779999 -6.21
-38.389999 -64.730003 -6.21
-38.459999 -64.669998 -6.21
-38.429001 -64.610001 -6.23
-38.470001 -64.559998 -6.23
-38.529999 -64.5 -6.23
-38.5 -64.440002 -6.25
-38.400002 -64.400002 -6.2800002
-37.279999 -64.410004 -6.6199999
-37.279999 -64.349998 -6.6399999
-37.349998 -64.279999 -6.6300001
-37.27 -64.220001 -6.6700001
-37.150002 -64.160004 -6.71
-37.299 -64.089996 -6.6799998
-37.450001 -64.029999 -6.6599998
-37.5 -63.959 -6.6599998
-37.479 -63.900002 -6.6799998
-37.529999 -63.84 -6.6799998
-37.57 -63.779999 -6.6799998
-37.668999 -63.720001 -6.6599998
-37.689999 -63.66 -6.6700001
-37.729 -63.599998 -6.6700001
-37.66 -63.540001 -6.71
-37.84 -63.490002 -6.6700001
-37.859001 -63.369999 -6.6799998
-37.918999 -63.310001 -6.6799998
-37.889999 -63.25 -6.6999998
-37.82 -63.18 -6.7399998
-38.34 -64.910004 -6.23
-38.5 -64.830002 -6.1999998
-38.488998 -64.779999 -6.21
-38.529999 -64.720001 -6.21
-38.549 -64.660004 -6.21
-38.59 -64.610001 -6.21
-38.59 -64.550003 -6.23
-38.630001 -64.5 -6.23
-38.539001 -64.449997 -6.2600002
-38.450001 -64.400002 -6.3099999
-37.229 -64.410004 -6.6700001
-37.32 -64.339996 -6.6599998
-37.330002 -64.279999 -6.6700001
-37.259998 -64.209 -6.71
-37.16 -64.150002 -6.75
-37.41 -64.080002 -6.6799998
-37.439999 -64.019997 -6.6999998
-37.5 -63.959 -6.6999998
-37.488998 -63.900002 -6.71
-37.529999 -63.830002 -6.71
-37.580002 -63.77 -6.71
-37.66 -63.709 -6.6999998
-37.689999 -63.650002 -6.71
-37.720001 -63.59 -6.71
-37.689999 -63.529999 -6.7399998
-37.808998 -63.48 -6.71
-37.779999 -63.41 -6.7399998
-37.889999 -63.360001 -6.71
-37.868999 -63.299999 -6.7399998
-37.880001 -63.240002 -6.7399998
-38.418999 -64.970001 -6.21
-38.609001 -64.889999 -6.1799998
-38.558998 -64.839996 -6.21
-38.618999 -64.779999 -6.21
-38.639999 -64.720001 -6.21
-38.650002 -64.669998 -6.21
-38.689999 -64.610001 -6.23
-38.729 -64.550003 -6.23
-38.679001 -64.5 -6.25
-38.57 -64.459 -6.3000002
-38.439999 -64.410004 -6.3499999
-37.289001 -64.339996 -6.71
-37.330002 -64.279999 -6.71
-37.229 -64.209 -6.75
-37.130001 -64.150002 -6.8000002
-37.41 -64.080002 -6.73
-37.429001 -64.019997 -6.7399998
-37.429001 -63.959 -6.75
-37.470001 -63.889999 -6.75
-37.479 -63.830002 -6.75
-37.599998 -63.77 -6.75
-37.630001 -63.709 -6.75
-37.689999 -63.650002 -6.7399998
-37.709999 -63.59 -6.75
-37.689999 -63.52 -6.77
-37.82 -63.470001 -6.75
-37.849998 -63.41 -6.75
-37.789001 -63.349998 -6.7800002
-37.868999 -63.290001 -6.77
-38.609001 -65.010002 -6.1799998
-38.609001 -64.959 -6.21
-38.609001 -64.900002 -6.21
-38.679001 -64.839996 -6.21
-38.729 -64.779999 -6.21
-38.75 -64.730003 -6.21
-38.789001 -64.669998 -6.21
-38.82 -64.610001 -6.21
-38.75 -64.559998 -6.25
-38.700001 -64.510002 -6.2800002
-38.558998 -64.459 -6.3200002
-38.479 -64.410004 -6.3699999
-38.368999 -64.360001 -6.4099998
-37.289001 -64.339996 -6.7399998
-37.34 -64.269997 -6.7399998
-37.220001 -64.209 -6.7800002
-37.179001 -64.150002 -6.8200002
-37.41 -64.080002 -6.77
-37.418999 -64.019997 -6.7800002
-37.450001 -63.950001 -6.7800002
-37.429001 -63.889999 -6.8000002
-37.479 -63.830002 -6.8000002
-37.558998 -63.759998 -6.7800002
-37.639999 -63.700001 -6.7800002
-37.700001 -63.639999 -6.7800002
-37.729 -63.580002 -6.7800002
-37.668999 -63.52 -6.8099999
-37.729 -63.459 -6.8099999
-37.679001 -63.389999 -6.8400002
-38.650002 -65.080002 -6.1999998
-38.808998 -65 -6.1700001
-38.77 -64.949997 -6.1999998
-38.759998 -64.900002 -6.21
-38.789001 -64.839996 -6.21
-38.808998 -64.790001 -6.21
-38.84 -64.730003 -6.23
-38.880001 -64.669998 -6.23
-38.868999 -64.620003 -6.23
-38.789001 -64.57 -6.2800002
-38.709999 -64.519997 -6.3099999
-38.618999 -64.470001 -6.3499999
-38.549 -64.419998 -6.3800001
-38.41 -64.370003 -6.4299998
-37.279999 -64.339996 -6.7800002
-37.34 -64.269997 -6.7800002
-37.220001 -64.209 -6.8200002
-37.118999 -64.139999 -6.8699999
-37.41 -64.080002 -6.8000002
-37.400002 -64.010002 -6.8200002
-37.450001 -63.950001 -6.8200002
-37.429001 -63.880001 -6.8400002
-37.5 -63.82 -6.8400002
-37.529999 -63.759998 -6.8400002
-37.630001 -63.700001 -6.8200002
-37.720001 -63.639999 -6.8099999
-37.720001 -63.580002 -6.8200002
-37.679001 -63.509998 -6.8499999
-38.789001 -65.129997 -6.1799998
-38.779999 -65.080002 -6.1999998
-38.868999 -65.010002 -6.1799998
-38.84 -64.959 -6.21
-38.880001 -64.900002 -6.21
-38.889999 -64.849998 -6.21
-38.939999 -64.790001 -6.21
-38.979 -64.730003 -6.21
-38.939999 -64.68 -6.23
-38.880001 -64.629997 -6.2800002
-38.799 -64.580002 -6.3099999
-38.75 -64.529999 -6.3400002
-38.66 -64.480003 -6.3800001
-38.549 -64.43 -6.4200001
-38.459999 -64.370003 -6.46
-37.238998 -64.339996 -6.8200002
-37.359001 -64.269997 -6.8099999
-37.259998 -64.209 -6.8499999
-37.25 -64.139999 -6.8699999
-37.418999 -64.080002 -6.8400002
-37.400002 -64.010002 -6.8499999
-37.429001 -63.950001 -6.8699999
-37.429001 -63.880001 -6.8800001
-37.539001 -63.82 -6.8499999
-37.52 -63.75 -6.8800001
-37.630001 -63.689999 -6.8499999
-37.700001 -63.630001 -6.8499999
-37.729 -63.57 -6.8499999
-37.668999 -63.5 -6.8899999
-38.679001 -65.220001 -6.23
-38.830002 -65.139999 -6.21
-38.889999 -65.080002 -6.21
-38.929001 -65.019997 -6.21
-38.959999 -64.959 -6.21
-38.979 -64.910004 -6.21
-39.049 -64.849998 -6.21
-39.02 -64.790001 -6.23
-39.02 -64.739998 -6.25
-38.959999 -64.690002 -6.2800002
-38.918999 -64.639999 -6.3000002
-38.808998 -64.589996 -6.3400002
-38.759998 -64.529999 -6.3699999
-38.650002 -64.480003 -6.4099998
-38.580002 -64.43 -6.4499998
-38.488998 -64.370003 -6.4899998
-37.308998 -64.269997 -6.8699999
-37.200001 -64.199997 -6.9099998
-37.34 -64.129997 -6.8899999
-37.439999 -64.07 -6.8699999
-37.359001 -64 -6.9099998
-37.450001 -63.939999 -6.8899999
-37.429001 -63.869999 -6.9200001
-37.488998 -63.810001 -6.9200001
-37.549 -63.740002 -6.9099998
-37.700001 -63.619999 -6.8899999
-38.82 -65.269997 -6.21
-38.868999 -65.199997 -6.21
-39.009998 -65.129997 -6.1999998
-38.988998 -65.080002 -6.21
-39.009998 -65.019997 -6.21
-39.07 -64.959 -6.21
-39.09 -64.910004 -6.21
-39.099998 -64.849998 -6.23
-39.099998 -64.800003 -6.25
-39.080002 -64.75 -6.2600002
-39.02 -64.690002 -6.2800002
-38.929001 -64.639999 -6.3200002
-38.868999 -64.589996 -6.3499999
-38.799 -64.540001 -6.3899999
-38.689999 -64.489998 -6.4299998
-38.609001 -64.43 -6.48
-38.509998 -64.370003 -6.52
-38.429001 -64.32 -6.5599999
-37.27 -64.260002 -6.9200001
-37.349998 -64.129997 -6.9299998
-37.380001 -64.059998 -6.9299998
-37.41 -63.990002 -6.9299998
-37.459999 -63.93 -6.9299998
-37.580002 -63.740002 -6.9299998
-39.029999 -65.309998 -6.1799998
-39.009998 -65.260002 -6.21
-39.07 -65.199997 -6.1999998
-39.07 -65.139999 -6.21
-39.109001 -65.080002 -6.21
-39.130001 -65.029999 -6.21
-39.130001 -64.970001 -6.23
-39.150002 -64.910004 -6.23
-39.220001 -64.860001 -6.23
-39.16 -64.809998 -6.2600002
-39.07 -64.760002 -6.3000002
-39.029999 -64.699997 -6.3200002
-38.959999 -64.650002 -6.3499999
-38.868999 -64.599998 -6.3899999
-38.779999 -64.550003 -6.4299998
-38.679001 -64.489998 -6.48
-38.639999 -64.440002 -6.5
-38.5 -64.379997 -6.5599999
-38.429001 -64.32 -6.5900002
-38.429001 -64.260002 -6.5999999
-39.029999 -65.379997 -6.21
-38.979 -65.330002 -6.23
-39.118999 -65.260002 -6.21
-39.16 -65.199997 -6.21
-39.189999 -65.139999 -6.21
-39.209999 -65.080002 -6.21
-39.259998 -65.019997 -6.21
-39.200001 -64.970001 -6.25
-39.289001 -64.910004 -6.23
-39.229 -64.860001 -6.2600002
-39.139999 -64.809998 -6.3099999
-39.099998 -64.760002 -6.3200002
-39.049 -64.709 -6.3499999
-38.988998 -64.660004 -6.3899999
-38.91 -64.599998 -6.4200001
-38.808998 -64.550003 -6.46
-38.700001 -64.489998 -6.5
-38.618999 -64.440002 -6.5500002
-38.549 -64.379997 -6.5700002
-38.539001 -64.32 -6.5999999
-38.5 -64.260002 -6.6199999
-39.058998 -65.440002 -6.23
-39.039001 -65.389999 -6.23
-39.189999 -65.309998 -6.21
-39.179001 -65.260002 -6.23
-39.25 -65.199997 -6.21
-39.27 -65.139999 -6.23
-39.32 -65.080002 -6.23
-39.308998 -65.029999 -6.23
-39.349998 -64.970001 -6.23
-39.308998 -64.919998 -6.2600002
-39.220001 -64.870003 -6.3099999
-39.179001 -64.82 -6.3200002
-39.130001 -64.769997 -6.3499999
-39.07 -64.709 -6.3899999
-39.009998 -64.660004 -6.4200001
-38.889999 -64.610001 -6.46
-38.830002 -64.550003 -6.5
-38.720001 -64.489998 -6.5300002
-38.618999 -64.43 -6.5900002
-38.59 -64.370003 -6.5999999
-38.639999 -64.32 -6.5999999
-38.539001 -64.25 -6.6399999
-39.279999 -65.480003 -6.1799998
-39.200001 -65.440002 -6.21
-39.220001 -65.379997 -6.23
-39.238998 -65.32 -6.23
-39.308998 -65.260002 -6.23
-39.308998 -65.209 -6.23
-39.32 -65.150002 -6.25
-39.400002 -65.089996 -6.23
-39.389999 -65.029999 -6.2600002
-39.368999 -64.980003 -6.2600002
-39.349998 -64.93 -6.2800002
-39.259998 -64.879997 -6.3200002
-39.209999 -64.830002 -6.3499999
-39.16 -64.769997 -6.3899999
-39.058998 -64.720001 -6.4299998
-39.02 -64.660004 -6.4499998
-38.91 -64.610001 -6.5
-38.84 -64.550003 -6.5300002
-38.720001 -64.5 -6.5700002
-38.679001 -64.440002 -6.5999999
-38.700001 -64.379997 -6.6199999
-38.66 -64.32 -6.6399999
-38.52 -64.25 -6.6999998
-39.200001 -65.559998 -6.23
-39.189999 -65.510002 -6.25
-39.229 -65.449997 -6.25
-39.279999 -65.379997 -6.25
-39.289001 -65.330002 -6.2600002
-39.368999 -65.260002 -6.25
-39.380001 -65.209 -6.2600002
-39.418999 -65.150002 -6.2600002
-39.41 -65.099998 -6.2600002
-39.418999 -65.040001 -6.2800002
-39.380001 -64.989998 -6.3099999
-39.330002 -64.940002 -6.3200002
-39.238998 -64.889999 -6.3699999
-39.238998 -64.830002 -6.3899999
-39.168999 -64.779999 -6.4200001
-39.09 -64.720001 -6.46
-39.009998 -64.669998 -6.4899998
-38.91 -64.610001 -6.5300002
-38.808998 -64.550003 -6.5700002
-38.759998 -64.489998 -6.5999999
-38.799 -64.43 -6.5999999
-38.75 -64.370003 -6.6399999
-38.668999 -64.309998 -6.6799998
-38.470001 -64.25 -6.75
-39.25 -65.510002 -6.2600002
-39.259998 -65.449997 -6.2800002
-39.32 -65.389999 -6.2600002
-39.368999 -65.269997 -6.2800002
-39.41 -65.209 -6.2800002
-39.429001 -65.160004 -6.2800002
-39.5 -65.099998 -6.2800002
-39.429001 -65.050003 -6.3200002
-39.389999 -65 -6.3400002
-39.368999 -64.940002 -6.3499999
-39.220001 -64.889999 -6.4200001
-39.220001 -64.839996 -6.4299998
-39.238998 -64.779999 -6.4299998
-39.099998 -64.720001 -6.4899998
-39.02 -64.669998 -6.5300002
-38.889999 -64.610001 -6.5700002
-38.859001 -64.550003 -6.5999999
-38.889999 -64.489998 -6.5999999
-38.859001 -64.43 -6.6300001
-38.77 -64.370003 -6.6700001
-38.609001 -64.309998 -6.73
-39.289001 -65.519997 -6.2800002
-39.289001 -65.459 -6.3000002
-39.418999 -65.230003 -6.3200002
-39.459999 -65.169998 -6.3200002
-39.459999 -65.110001 -6.3200002
-39.509998 -65.050003 -6.3200002
-39.400002 -65 -6.3800001
-39.359001 -64.949997 -6.3899999
-39.279999 -64.900002 -6.4299998
-39.25 -64.839996 -6.46
-39.200001 -64.779999 -6.48
-39.099998 -64.730003 -6.5300002
-38.988998 -64.669998 -6.5700002
-38.929001 -64.610001 -6.5999999
-38.950001 -64.550003 -6.5999999
-38.939999 -64.489998 -6.6300001
-38.859001 -64.43 -6.6700001
-38.759998 -64.370003 -6.71
-38.599998 -64.300003 -6.7800002
-39.238998 -65.589996 -6.3200002
-39.308998 -65.529999 -6.3200002
-39.330002 -65.410004 -6.3400002
-39.380001 -65.349998 -6.3400002
-39.41 -65.290001 -6.3499999
-39.429001 -65.230003 -6.3499999
-39.470001 -65.169998 -6.3499999
-39.479 -65.120003 -6.3499999
-39.359001 -65.07 -6.4099998
-39.400002 -65.010002 -6.4099998
-39.389999 -64.949997 -6.4299998
-39.349998 -64.900002 -6.4499998
-39.279999 -64.839996 -6.4899998
-39.179001 -64.790001 -6.5300002
-39.099998 -64.730003 -6.5700002
-39 -64.669998 -6.5999999
-39.02 -64.610001 -6.6199999
-39.039001 -64.550003 -6.6300001
-38.939999 -64.489998 -6.6700001
-38.91 -64.43 -6.6799998
-38.689999 -64.360001 -6.77
-39.099998 -65.849998 -6.3499999
-39.308998 -65.529999 -6.3499999
-39.32 -65.470001 -6.3699999
-39.349998 -65.410004 -6.3699999
-39.389999 -65.349998 -6.3800001
-39.41 -65.300003 -6.3800001
-39.450001 -65.239998 -6.3899999
-39.479 -65.18 -6.3899999
-39.488998 -65.120003 -6.3899999
-39.389999 -65.07 -6.4299998
-39.509998 -65.010002 -6.4200001
-39.389999 -64.949997 -6.46
-39.299 -64.900002 -6.5
-39.259998 -64.839996 -6.5300002
-39.168999 -64.790001 -6.5700002
-39.080002 -64.730003 -6.5999999
-39.109001 -64.669998 -6.5999999
-39.118999 -64.610001 -6.6300001
-39.049 -64.550003 -6.6599998
-38.868999 -64.480003 -6.73
-38.84 -64.419998 -6.75
-39.200001 -65.730003 -6.3899999
-39.330002 -65.540001 -6.3899999
-39.349998 -65.480003 -6.3899999
-39.380001 -65.419998 -6.3899999
-39.389999 -65.360001 -6.4099998
-39.429001 -65.300003 -6.4200001
-39.470001 -65.239998 -6.4200001
-39.479 -65.190002 -6.4299998
-39.488998 -65.129997 -6.4299998
-39.429001 -65.07 -6.46
-39.470001 -65.019997 -6.46
-39.400002 -64.959 -6.5
-39.32 -64.900002 -6.5300002
-39.25 -64.849998 -6.5700002
-39.150002 -64.790001 -6.6199999
-39.200001 -64.730003 -6.5999999
-39.220001 -64.669998 -6.6199999
-39.109001 -64.610001 -6.6700001
-38.988998 -64.540001 -6.71
-38.91 -64.480003 -6.75
-38.77 -64.410004 -6.8200002
-39.16 -65.800003 -6.4299998
-39.220001 -65.730003 -6.4200001
-39.279999 -65.610001 -6.4299998
-39.308998 -65.550003 -6.4299998
-39.349998 -65.489998 -6.4299998
-39.368999 -65.43 -6.4299998
-39.400002 -65.370003 -6.4499998
-39.418999 -65.309998 -6.46
-39.459999 -65.25 -6.46
-39.470001 -65.190002 -6.46
-39.479 -65.129997 -6.48
-39.558998 -65.07 -6.46
-39.459999 -65.019997 -6.5
-39.400002 -64.959 -6.5300002
-39.32 -64.900002 -6.5700002
-39.259998 -64.839996 -6.5999999
-39.27 -64.779999 -6.6199999
-39.279999 -64.730003 -6.6300001
-39.25 -64.669998 -6.6399999
-39.058998 -64.599998 -6.71
-38.979 -64.540001 -6.75
-38.900002 -64.470001 -6.8000002
-39.02 -66.07 -6.4499998
-39.07 -66 -6.4499998
-39.130001 -65.870003 -6.46
-39.220001 -65.739998 -6.46
-39.25 -65.68 -6.46
-39.32 -65.489998 -6.48
-39.368999 -65.43 -6.48
-39.41 -65.370003 -6.48
-39.429001 -65.309998 -6.4899998
-39.470001 -65.25 -6.4899998
-39.470001 -65.190002 -6.5
-39.470001 -65.129997 -6.52
-39.509998 -65.07 -6.52
-39.488998 -65.019997 -6.5300002
-39.439999 -64.959 -6.5700002
-39.368999 -64.900002 -6.5999999
-39.389999 -64.839996 -6.5999999
-39.380001 -64.779999 -6.6199999
-39.330002 -64.720001 -6.6399999
-39.229 -64.660004 -6.6999998
-39.058998 -64.599998 -6.75
-38.970001 -64.529999 -6.8099999
-38.868999 -64.459 -6.8499999
-39 -66.139999 -6.46
-39.009998 -66.080002 -6.48
-39.080002 -66.010002 -6.48
-39.080002 -65.949997 -6.4899998
-39.139999 -65.879997 -6.4899998
-39.168999 -65.809998 -6.4899998
-39.220001 -65.75 -6.4899998
-39.380001 -65.440002 -6.52
-39.41 -65.379997 -6.52
-39.418999 -65.32 -6.5300002
-39.5 -65.25 -6.52
-39.459999 -65.199997 -6.5300002
-39.459999 -65.139999 -6.5599999
-39.529999 -65.080002 -6.5500002
-39.488998 -65.019997 -6.5700002
-39.459999 -64.959 -6.5999999
-39.418999 -64.900002 -6.6199999
-39.439999 -64.839996 -6.6300001
-39.41 -64.779999 -6.6399999
-39.289001 -64.720001 -6.6999998
-39.150002 -64.660004 -6.75
-39.07 -64.589996 -6.8000002
-38.950001 -64.519997 -6.8499999
-39.049 -65.949997 -6.5300002
-39.118999 -65.879997 -6.5300002
-39.139999 -65.82 -6.5300002
-39.368999 -65.440002 -6.5500002
-39.429001 -65.379997 -6.5500002
-39.439999 -65.32 -6.5599999
-39.479 -65.25 -6.5599999
-39.488998 -65.199997 -6.5700002
-39.52 -65.139999 -6.5700002
-39.5 -65.080002 -6.5999999
-39.509998 -65.019997 -6.5999999
-39.529999 -64.959 -6.5999999
-39.509998 -64.900002 -6.6300001
-39.459999 -64.839996 -6.6599998
-39.400002 -64.779999 -6.6799998
-39.308998 -64.709 -6.73
-39.109001 -64.650002 -6.8099999
-39.07 -64.580002 -6.8400002
-39.5 -65.43 -6.5500002
-39.450001 -65.370003 -6.5700002
-39.470001 -65.309998 -6.5900002
-39.509998 -65.25 -6.5900002
-39.509998 -65.190002 -6.5999999
-39.529999 -65.129997 -6.5999999
-39.549 -65.07 -6.6199999
-39.609001 -65.010002 -6.5999999
-39.549 -64.949997 -6.6399999
-39.52 -64.889999 -6.6700001
-39.459999 -64.830002 -6.6999998
-39.359001 -64.769997 -6.7399998
-39.25 -64.699997 -6.7800002
-39.080002 -64.629997 -6.8499999
-39.450001 -65.379997 -6.5999999
-39.450001 -65.32 -6.6300001
-39.488998 -65.25 -6.6300001
-39.470001 -65.190002 -6.6399999
-39.52 -65.129997 -6.6399999
-39.529999 -65.07 -6.6599998
-39.549 -65.010002 -6.6599998
-39.57 -64.949997 -6.6700001
-39.52 -64.889999 -6.6999998
-39.429001 -64.830002 -6.7399998
-39.32 -64.760002 -6.7800002
-39.459999 -65.370003 -6.6399999
-39.450001 -65.309998 -6.6599998
-39.509998 -65.25 -6.6599998
-39.52 -65.190002 -6.6700001
-39.529999 -65.129997 -6.6799998
-39.549 -65.07 -6.6799998
-39.529999 -65.010002 -6.71
-39.52 -64.949997 -6.71
-39.5 -64.889999 -6.7399998
-39.41 -64.82 -6.7800002
-39.418999 -65.370003 -6.6799998
-39.459999 -65.309998 -6.6999998
-39.488998 -65.25 -6.6999998
-39.5 -65.190002 -6.71
-39.529999 -65.120003 -6.71
-39.549 -65.059998 -6.73
-39.52 -65 -6.75
-39.5 -64.940002 -6.77
-39.479 -64.879997 -6.7800002
-39.200001 -64.800003 -6.8899999
-39.439999 -65.370003 -6.73
-39.488998 -65.309998 -6.73
-39.429001 -65.239998 -6.75
-39.52 -65.18 -6.7399998
-39.5 -65.120003 -6.75
-39.529999 -65.059998 -6.77
-39.529999 -65 -6.7800002
-39.52 -64.93 -6.8000002
-39.189999 -64.860001 -6.9200001
-39.57 -65.360001 -6.73
-39.459999 -65.300003 -6.77
-39.450001 -65.239998 -6.7800002
-39.5 -65.18 -6.7800002
-39.539001 -65.110001 -6.7800002
-39.529999 -65.050003 -6.8099999
-39.509998 -64.989998 -6.8200002
-39.41 -65.360001 -6.8099999
-39.459999 -65.290001 -6.8099999
-39.470001 -65.230003 -6.8200002
-39.5 -65.169998 -6.8200002
-39.488998 -65.099998 -6.8400002
-39.5 -65.040001 -6.8499999
-39.470001 -65.349998 -6.8200002
-39.41 -65.290001 -6.8699999
-39.429001 -65.230003 -6.8699999
-39.459999 -65.160004 -6.8800001
-39.34 -65.279999 -6.9299998
-39.34 -65.209 -6.9299998
-39.41 -65.400002 -6.3899999
-39.34 -65.580002 -6.4899998
-39.450001 -65.309998 -6.6599998
-39.439999 -65.349998 -6.7800002
-39.439999 -65.339996 -6.8899999
-39.389999 -65.290001 -6.2800002
-39.189999 -65.760002 -6.3200002
-39.099998 -65.989998 -6.4099998
-39.049 -66.110001 -6.6199999
-39.109001 -65.970001 -6.75
-39.220001 -65.709 -6.9299998
-39.220001 -65.510002 -6.21
-39.049 -65.940002 -6.2600002
-38.580002 -67.07 -6.1999998
-38.509998 -67.230003 -6.2800002
-38.75 -66.650002 -6.5
-38.75 -66.650002 -6.5999999
-38.75 -66.669998 -6.71
-38.959999 -66.169998 -6.9299998
-39.099998 -65.629997 -6.04
-39.09 -65.660004 -6.1500001
-39.039001 -65.769997 -6.2600002
-38.75 -66.470001 -6.2600002
-38.459999 -67.18 -6.2600002
-38.549 -66.959 -6.4099998
-38.459999 -67.160004 -6.48
-38.418999 -67.269997 -6.5700002
-38.479 -67.129997 -6.6999998
-38.77 -66.239998 -6.04
-38.700001 -66.400002 -6.1399999
-38.639999 -66.550003 -6.21
-38.418999 -67.080002 -6.25
-38.389999 -67.160004 -6.3400002
-38.32 -67.309998 -6.4200001
-38.16 -67.699997 -6.5599999
-38.238998 -67.519997 -6.6999998
-38.25 -67.5 -6.8099999
-38.209999 -67.599998 -6.8899999
-38.679001 -66.279999 -5.9000001
-38.539001 -66.599998 -5.98
-38.429001 -66.870003 -6.04
-38.359001 -67.040001 -6.1199999
-38.308998 -67.150002 -6.21
-38.27 -67.269997 -6.3000002
-38.220001 -67.379997 -6.3899999
-38.099998 -67.660004 -6.4299998
-38.039001 -67.830002 -6.5
-37.979 -67.959 -6.5900002
-37.959999 -68.010002 -6.6799998
-37.929001 -68.099998 -6.75
-37.950001 -68.040001 -6.8800001
-38.539001 -66.43 -5.8699999
-38.418999 -66.720001 -5.9299998
-38.368999 -66.849998 -6.0300002
-38.32 -66.980003 -6.1199999
-38.368999 -66.849998 -6.25
-38.549 -66.410004 -6.4299998
-38.150002 -67.389999 -6.3699999
-38.058998 -67.599998 -6.4299998
-37.950001 -67.860001 -6.4899998
-37.880001 -68.040001 -6.5500002
-37.84 -68.139999 -6.6300001
-37.808998 -68.209 -6.71
-37.799 -68.220001 -6.8200002
-37.808998 -68.209 -6.9200001
-38.470001 -66.43 -5.8499999
-38.359001 -66.699997 -5.9299998
-38.789001 -65.669998 -6.21
-38.709999 -65.849998 -6.2800002
-38.558998 -66.220001 -6.3499999
-38.549 -66.239998 -6.46
-38.07 -67.400002 -6.3499999
-37.970001 -67.650002 -6.4200001
-37.868999 -67.900002 -6.46
-37.789001 -68.089996 -6.5300002
-37.75 -68.18 -6.6199999
-37.75 -68.199997 -6.71
-37.689999 -68.339996 -6.7800002
-37.709999 -68.269997 -6.8899999
-38.41 -66.400002 -5.8499999
-38.32 -66.629997 -5.9299998
-38.509998 -66.169998 -6.1199999
-38.5 -66.18 -6.23
-38.5 -66.190002 -6.3400002
-38.479 -66.230003 -6.4499998
-38.029999 -67.32 -6.3699999
-37.91 -67.620003 -6.4099998
-37.82 -67.839996 -6.46
-37.720001 -68.080002 -6.5300002
-37.689999 -68.139999 -6.5999999
-37.679001 -68.169998 -6.71
-37.609001 -68.349998 -6.77
-37.599998 -68.379997 -6.8499999
-37.650002 -68.260002 -6.9899998
-38.238998 -66.639999 -5.9299998
-38.450001 -66.129997 -6.0999999
-38.450001 -66.129997 -6.23
-38.450001 -66.139999 -6.3400002
-38.429001 -66.18 -6.4499998
-37.959999 -67.330002 -6.3499999
-37.830002 -67.639999 -6.3899999
-37.738998 -67.849998 -6.46
-37.650002 -68.07 -6.52
-37.618999 -68.139999 -6.5999999
-37.639999 -68.110001 -6.71
-37.549 -68.330002 -6.75
-37.539001 -68.349998 -6.8499999
-37.558998 -68.300003 -6.96
-38.27 -66.400002 -5.8400002
-38.179001 -66.620003 -5.9299998
-38.400002 -66.099998 -6.1199999
-38.41 -66.07 -6.23
-38.389999 -66.129997 -6.3400002
-38.368999 -66.160004 -6.4499998
-37.900002 -67.309998 -6.3499999
-37.789001 -67.57 -6.4099998
-37.679001 -67.830002 -6.46
-37.599998 -68.029999 -6.52
-37.57 -68.110001 -6.5999999
-37.580002 -68.080002 -6.71
-37.488998 -68.300003 -6.75
-37.479 -68.330002 -6.8499999
-37.488998 -68.300003 -6.96
-38.209999 -66.389999 -5.8400002
-38.130001 -66.589996 -5.9299998
-38.668999 -65.290001 -6.25
-38.599998 -65.459 -6.3400002
-38.32 -66.129997 -6.3400002
-38.330002 -66.120003 -6.46
-37.84 -67.300003 -6.3499999
-37.720001 -67.580002 -6.4099998
-37.618999 -67.82 -6.46
-37.529999 -68.040001 -6.52
-37.479 -68.160004 -6.5900002
-37.5 -68.120003 -6.6999998
-37.41 -68.32 -6.75
-37.418999 -68.300003 -6.8499999
-37.418999 -68.32 -6.96
-38.150002 -66.379997 -5.8400002
-38.058998 -66.589996 -5.9299998
-38.618999 -65.239998 -6.23
-38.599998 -65.290001 -6.3499999
-38.27 -66.089996 -6.3400002
-38.25 -66.120003 -6.4499998
-37.779999 -67.279999 -6.3499999
-37.650002 -67.589996 -6.3899999
-37.549 -67.82 -6.4499998
-37.470001 -68.019997 -6.5
-37.41 -68.169998 -6.5700002
-37.439999 -68.099998 -6.6999998
-37.359001 -68.279999 -6.75
-37.359001 -68.300003 -6.8499999
-37.359001 -68.279999 -6.9499998
-38.080002 -66.370003 -5.8400002
-38.02 -66.519997 -5.9299998
-38.558998 -65.199997 -6.25
-38.549 -65.239998 -6.3499999
-38.52 -65.330002 -6.46
-38.32 -65.800003 -6.5
-37.709999 -67.269997 -6.3499999
-37.59 -67.550003 -6.3899999
-37.479 -67.809998 -6.4499998
-37.389999 -68.040001 -6.5
-37.34 -68.169998 -6.5700002
-37.308998 -68.239998 -6.6599998
-37.299 -68.260002 -6.75
-37.289001 -68.279999 -6.8499999
-37.308998 -68.25 -6.96
-38.279999 -65.720001 -5.8200002
-38.029999 -66.339996 -5.8400002
-37.959999 -66.5 -5.9299998
-38.5 -65.199997 -6.25
-38.5 -65.209 -6.3699999
-38.488998 -65.239998 -6.4899998
-38.459999 -65.300003 -6.5999999
-37.650002 -67.25 -6.3499999
-37.529999 -67.550003 -6.3899999
-37.418999 -67.800003 -6.4499998
-37.330002 -68.029999 -6.5
-37.279999 -68.150002 -6.5700002
-37.25 -68.220001 -6.6700001
-37.229 -68.279999 -6.75
-37.229 -68.260002 -6.8499999
-37.259998 -68.209 -6.96
-38.200001 -65.760002 -5.8200002
-37.970001 -66.330002 -5.8400002
-37.900002 -66.489998 -5.9299998
-37.859001 -66.589996 -6.04
-38.450001 -65.160004 -6.3800001
-38.429001 -65.209 -6.4899998
-38.41 -65.260002 -6.5999999
-37.580002 -67.260002 -6.3499999
-37.479 -67.510002 -6.4099998
-37.359001 -67.809998 -6.4499998
-37.279999 -68 -6.5
-37.209999 -68.169998 -6.5700002
-37.229 -68.120003 -6.6799998
-37.179001 -68.239998 -6.75
-37.168999 -68.260002 -6.8499999
-37.189999 -68.220001 -6.96
-38.139999 -65.760002 -5.8200002
-37.900002 -66.32 -5.8499999
-37.808998 -66.559998 -5.9299998
-37.830002 -66.489998 -6.0599999
-38.389999 -65.150002 -6.3800001
-38.380001 -65.18 -6.5
-38.359001 -65.220001 -6.5999999
-37.529999 -67.220001 -6.3499999
-37.41 -67.519997 -6.4099998
-37.299 -67.790001 -6.46
-37.209999 -68 -6.5
-37.16 -68.129997 -6.5700002
-37.189999 -68.050003 -6.6999998
-37.118999 -68.209 -6.75
-37.118999 -68.230003 -6.8499999
-37.130001 -68.199997 -6.96
-38.029999 -65.839996 -5.8200002
-37.849998 -66.300003 -5.8699999
-37.75 -66.519997 -5.9499998
-38.349998 -65.080002 -6.2800002
-38.09 -65.709 -6.3000002
-37.929001 -66.089996 -6.3499999
-37.549 -67.019997 -6.2800002
-37.459999 -67.220001 -6.3499999
-37.34 -67.519997 -6.4099998
-37.238998 -67.769997 -6.46
-37.150002 -67.970001 -6.52
-37.118999 -68.059998 -6.5999999
-37.139999 -68.010002 -6.71
-37.080002 -68.160004 -6.7800002
-37.058998 -68.209 -6.8499999
-37.058998 -68.199997 -6.96
-37.979 -65.809998 -5.8200002
-37.779999 -66.300003 -5.8699999
-38.308998 -65.029999 -6.1700001
-38.27 -65.139999 -6.2600002
-37.900002 -66.019997 -6.23
-37.889999 -66.040001 -6.3499999
-37.470001 -67.059998 -6.2800002
-37.389999 -67.239998 -6.3499999
-37.279999 -67.510002 -6.4099998
-37.179001 -67.75 -6.46
-37.099998 -67.949997 -6.52
-37.049 -68.07 -6.5999999
-37.039001 -68.099998 -6.6799998
