# .PCD v0.7 - Point Cloud Data file format
VERSION 0.7
FIELDS x y z
SIZE 4 4 4
TYPE F F F
COUNT 1 1 1
WIDTH 794
HEIGHT 1
VIEWPOINT 0 0 0 1 0 0 0
POINTS 794
DATA ascii
0.0067153047 0.11521593 0.039463922
-0.00042527929 0.11611269 0.040108774
-0.0093606114 0.11539521 0.039935976
0.027579065 0.1161945 0.03091733
0.025679294 0.12392383 0.022442807
0.035114776 0.11409098 0.023255326
0.029956996 0.11878906 0.025236789
0.027747365 0.1232643 0.015762789
0.036597978 0.11309457 0.017281866
0.017257815 0.12443335 0.029621478
0.0093117794 0.12591282 0.031266578
0.019346416 0.11814401 0.033910856
0.0099711409 0.11918865 0.036117405
0.019296421 0.12659205 0.024394488
0.0093645742 0.13006988 0.02457995
0.023964623 0.12267429 0.027916213
-0.00052456855 0.12627505 0.031834729
-0.0098472517 0.12562878 0.031359967
-0.00065818912 0.12117832 0.036851358
-0.011002515 0.12013999 0.036391273
-0.00037053315 0.13038415 0.025353117
-0.010710183 0.12899786 0.025013288
0.017620569 0.12941541 0.017521091
0.0082632415 0.13231601 0.016782653
0.0026146388 0.13270225 0.01556351
-0.012664409 0.13053432 0.018066496
-0.015987206 0.11413774 0.039246522
-0.072677538 0.13747919 0.05088342
-0.064115055 0.14695287 0.040588118
-0.069999352 0.14858779 0.042848088
-0.063767754 0.13924722 0.041826468
-0.069240898 0.14087282 0.047226809
-0.077644855 0.13758032 0.051124875
-0.078521967 0.14756082 0.042556938
-0.080808371 0.14119564 0.046730503
-0.08639884 0.13855065 0.042300023
-0.064641744 0.12665038 0.050608415
-0.070627399 0.12993708 0.052299213
-0.064470187 0.12291019 0.050824948
-0.070390351 0.1214217 0.052379929
-0.060834408 0.12925529 0.043587826
-0.066564001 0.13316031 0.048672691
-0.061626691 0.12111996 0.044318613
-0.069839373 0.11645024 0.048573077
-0.078733191 0.13086526 0.052107699
-0.076560602 0.12249979 0.051299293
-0.083513796 0.12957448 0.049188696
-0.087916821 0.12969144 0.044857461
-0.08114285 0.12003336 0.04828475
-0.088061221 0.12132378 0.044992846
-0.0547086 0.15510313 0.029298294
-0.053776246 0.15567714 0.026051896
-0.034699287 0.17369387 -0.0013877398
-0.036197916 0.17372137 -0.0013144749
-0.034738608 0.17107095 -0.00099664263
-0.031853385 0.1588046 0.0005193752
-0.050449368 0.15669926 0.010322142
-0.040196363 0.16828491 0.0016919918
-0.047972564 0.16616452 0.0030265001
-0.040504411 0.15860543 0.0043098121
-0.049748104 0.16090682 0.0069866343
-0.060553513 0.15595311 0.03242502
-0.06979271 0.15614754 0.033138834
-0.060753673 0.15792042 0.026635202
-0.070308335 0.15835494 0.027050614
-0.076819547 0.15574619 0.031847339
-0.079824746 0.15673558 0.02570188
-0.085604675 0.15532564 0.021886872
-0.05578215 0.15795667 0.0094532827
-0.056445733 0.15973309 0.0064302748
-0.086911462 0.15522501 0.018992739
-0.054434247 0.1487916 0.03012564
-0.0531714 0.13818276 0.031571079
-0.05252051 0.14965306 0.025496738
-0.045345977 0.13464493 0.021263571
-0.049954779 0.1393985 0.025145177
-0.017012412 0.12434419 0.029774023
-0.020408079 0.11853654 0.034381893
-0.030728264 0.11790676 0.032232367
-0.020168494 0.12611575 0.023589281
-0.031263664 0.12556987 0.022542469
-0.023665193 0.12298521 0.027897496
-0.030560369 0.12254848 0.027521448
-0.051476188 0.12951511 0.034537606
-0.040473521 0.11806301 0.032563441
-0.050784439 0.11943581 0.034320824
-0.041305896 0.12715319 0.0234956
-0.046634618 0.12980233 0.027577188
-0.041223735 0.12270575 0.028127193
-0.04645934 0.12269335 0.028465882
-0.034767296 0.15302205 -0.00064915163
-0.049208712 0.14962535 0.013035427
-0.045155156 0.13516474 0.017629243
-0.047844704 0.14080526 0.015557909
-0.041721292 0.15108559 0.0043817577
-0.046690464 0.14867456 0.0077998545
-0.021833792 0.1281157 0.017097721
-0.030500099 0.12786497 0.016995341
-0.040632855 0.13008401 0.015995007
-0.059669215 0.14980289 0.035527535
-0.069814138 0.15330333 0.037819389
-0.058894414 0.13960607 0.035528366
-0.08078137 0.15142483 0.035689879
-0.086091608 0.14773925 0.033681717
-0.087299004 0.14162454 0.037812039
-0.08392439 0.15405779 0.02795274
-0.087971441 0.15038674 0.025757041
-0.089263342 0.14059964 0.023779374
-0.057165582 0.13207063 0.038625792
-0.058789562 0.11795561 0.037605204
-0.090277389 0.13108484 0.038989432
-0.090368561 0.1200035 0.040108271
-0.091895565 0.13040471 0.025536085
-0.092799 0.12386587 0.024859594
-0.090103395 0.14828379 0.019824935
-0.089599654 0.13972415 0.019927328
-0.09213493 0.11943369 0.019485276
0.026062477 0.10425393 0.039960798
0.034514692 0.093852945 0.039031863
0.028456971 0.097772323 0.041926991
0.034745786 0.088143453 0.03970208
0.029060051 0.088245407 0.043860659
0.034487415 0.079837821 0.039677449
0.028854728 0.078285716 0.044020019
0.015632149 0.095033348 0.049793147
0.0086690327 0.096634775 0.051333159
0.01860044 0.10690852 0.041777387
0.00916404 0.10805336 0.041766524
0.0196406 0.098810025 0.046019603
0.0098295016 0.10112891 0.046991996
-0.00078178709 0.097800411 0.053084794
-0.010214994 0.097438537 0.053228207
-0.00064179976 0.10881691 0.04242789
-0.010647319 0.10895701 0.042181026
-0.00057602901 0.10267474 0.045732006
-0.011333244 0.10222275 0.045214191
0.017398257 0.087631062 0.050655674
0.0092231957 0.088858761 0.054377429
0.018518832 0.078685686 0.051526513
0.0090618981 0.078810453 0.054870676
0.021580022 0.089782938 0.047899581
0.023242844 0.07731577 0.048650783
-0.00065338443 0.089003399 0.056179732
-0.010798053 0.089109078 0.056538384
-0.00097279006 0.079040915 0.057326701
-0.010900962 0.079304263 0.056731008
0.033718821 0.068773501 0.039071359
0.02866306 0.068205401 0.042099614
0.027111484 0.059226386 0.04192692
0.023700215 0.048878387 0.040019054
0.016526971 0.069170758 0.051003832
0.0087962179 0.068854518 0.054525971
0.014507265 0.060652222 0.04997348
0.0086362446 0.058805529 0.052654386
0.021169903 0.067566477 0.047603726
0.01902613 0.058177978 0.047393784
0.013275914 0.054426808 0.049382627
-0.0010034022 0.068866603 0.056211174
-0.011025342 0.069190584 0.054908935
-0.0013097979 0.058718551 0.05430717
-0.011295983 0.059322052 0.052791134
-0.015282097 0.054750878 0.0498503
0.0070010158 0.051845528 0.051120244
0.018260458 0.048223626 0.043029219
0.0090586022 0.047230382 0.046526808
0.017735016 0.041292693 0.042927802
0.0082155792 0.041301429 0.045400962
-0.0012153871 0.051914297 0.051737711
-0.012119896 0.049022406 0.051181916
-0.013639939 0.042057019 0.051470298
-0.0017994937 0.046878498 0.047705725
-0.011364616 0.049054597 0.048924066
-0.0017279304 0.04160472 0.047551807
-0.0089795431 0.041746132 0.049765006
0.044252839 0.094749466 0.020879658
0.035602093 0.1057772 0.030159971
0.029434705 0.10844012 0.034739543
0.037213549 0.097626165 0.033289801
0.032728486 0.10059353 0.036985312
0.037894536 0.10759314 0.025031349
0.033903543 0.11211599 0.027835911
0.041664328 0.097975954 0.025015272
0.044645693 0.087212309 0.022730285
0.053917829 0.072732054 0.019001525
0.045467351 0.077293865 0.022247005
0.038749222 0.087721303 0.03405603
0.03840293 0.077693246 0.034443427
0.042799726 0.088090241 0.026764164
0.04276187 0.077607036 0.027280942
0.044366177 0.096813641 0.013586566
0.044748954 0.097253539 0.0069444515
0.040255636 0.1068027 0.015871229
0.042909816 0.10073782 0.015512072
0.045749329 0.087984279 0.014055128
0.055245038 0.073080577 0.016483905
0.048860975 0.074305817 0.016073937
0.046122126 0.086744547 0.0078853918
0.020621799 0.11104726 0.037586227
0.012189958 0.11218816 0.038312428
0.046773355 0.057992715 0.030317364
0.056214117 0.066873379 0.022757933
0.048359264 0.067728385 0.025069807
0.056046598 0.057808872 0.02370565
0.051227096 0.057381827 0.028042268
0.037297726 0.068128616 0.035102069
0.033417173 0.065955475 0.038998161
0.038146142 0.057533197 0.032273728
0.030848669 0.056170143 0.037805207
0.04209692 0.06725087 0.027258245
0.041584469 0.061780598 0.028642634
0.044909634 0.050775241 0.030389834
0.054448631 0.050698664 0.021006115
0.048119828 0.048084527 0.024977148
0.037940875 0.049346264 0.03076241
0.0280887 0.048319377 0.035506491
0.025479058 0.041616939 0.033836327
0.038277376 0.044443686 0.027665675
0.031870209 0.044344768 0.028765669
0.036288563 0.041247316 0.024626637
0.029914653 0.040378228 0.026468186
0.059364583 0.068248518 0.015909262
0.046643067 0.072079323 0.018433595
0.059435271 0.05812145 0.017070731
0.055377387 0.049661178 0.018135112
0.050171111 0.045619059 0.018316168
0.02312289 0.049219623 0.039371721
0.022337245 0.040272612 0.038567547
-0.018365178 0.096284069 0.051747814
-0.020261716 0.10841046 0.041414931
-0.029878341 0.10633637 0.040805612
-0.021407844 0.10003184 0.044724807
-0.030779095 0.099477395 0.043598078
-0.042112723 0.10671798 0.040696178
-0.051001582 0.10679773 0.040946189
-0.040822033 0.099547349 0.042334866
-0.050840419 0.099769756 0.043662328
-0.020385548 0.089139417 0.054478899
-0.026043182 0.085572459 0.050167438
-0.020138828 0.079704702 0.054242969
-0.024965242 0.092076123 0.048725486
-0.03098285 0.08949551 0.044073943
-0.02487264 0.077298008 0.047111806
-0.03127487 0.079329066 0.042271055
-0.040928688 0.089575462 0.043388888
-0.050896849 0.089673139 0.04521681
-0.041215103 0.079341181 0.042848568
-0.051131967 0.079674646 0.043460798
-0.060181737 0.1068547 0.041313231
-0.071349218 0.11294123 0.044548173
-0.060709104 0.099799082 0.043614943
-0.069028184 0.099289611 0.041853018
-0.079092585 0.11422997 0.044722319
-0.061005462 0.089725509 0.04499656
-0.069458745 0.090455793 0.042532492
-0.060694668 0.080441862 0.042815983
-0.067837059 0.083202705 0.041748498
-0.018318474 0.070118934 0.05240405
-0.017200142 0.061246987 0.050963793
-0.022980796 0.068719797 0.045354299
-0.03347699 0.070240349 0.041229509
-0.021296196 0.058855783 0.045438685
-0.035730999 0.063181937 0.04087843
-0.040721409 0.069533877 0.041844372
-0.048025891 0.073649801 0.040874496
-0.039939489 0.062016606 0.041019265
-0.021592291 0.047408082 0.052748237
-0.028903354 0.046136666 0.05174106
-0.021656759 0.042293604 0.054105591
-0.030093884 0.042341191 0.052878015
-0.021691123 0.052189682 0.047128595
-0.031682611 0.049340244 0.045833256
-0.035125401 0.042349819 0.04836873
-0.04188842 0.047430649 0.042469285
-0.051774606 0.047525797 0.04456177
-0.041858256 0.041970868 0.044556323
-0.051734801 0.042120241 0.047373906
-0.059305429 0.047181152 0.044076212
-0.060678139 0.042080339 0.045696449
-0.023054641 0.11260609 0.038461458
-0.031208402 0.11112955 0.037467148
-0.039982483 0.11103606 0.037654079
-0.050510149 0.11175882 0.038131934
-0.060904417 0.11165419 0.038349137
-0.070528753 0.10900158 0.037823465
-0.073634177 0.1008583 0.038861837
-0.078106441 0.10816038 0.032774184
-0.079309665 0.099883631 0.034231655
-0.082875594 0.10872864 0.026530145
-0.086529635 0.10615851 0.02148498
-0.084420227 0.10018891 0.02854011
-0.08739461 0.099529825 0.023782408
-0.074355282 0.08917392 0.039556522
-0.0639925 0.076407425 0.0397432
-0.071689233 0.079458237 0.037277613
-0.075998381 0.075540237 0.029745543
-0.079293303 0.090214327 0.035104778
-0.078350887 0.082459167 0.033413585
-0.084241733 0.08977744 0.027889032
-0.087336898 0.092298977 0.023538178
-0.080645025 0.08017537 0.026848646
-0.085590899 0.11080132 0.01919209
-0.086946696 0.10788019 0.01789953
-0.088712856 0.1014811 0.018395457
-0.086005747 0.08603546 0.019620745
-0.088695504 0.092208572 0.019900588
-0.082647912 0.079002768 0.018870497
-0.082498744 0.077368118 0.0082170358
-0.026021114 0.066423982 0.039547127
-0.029590458 0.068469509 0.039199386
-0.025856428 0.058803037 0.039242893
-0.031407222 0.059006829 0.038205251
-0.045289628 0.067164175 0.039748132
-0.051536541 0.069558442 0.037390672
-0.042291354 0.058112297 0.039714586
-0.049204294 0.059495952 0.035138432
-0.055293173 0.065013885 0.03030752
-0.05367142 0.061109297 0.027161067
-0.033900186 0.052546684 0.03920538
-0.041574482 0.052149497 0.040072963
-0.050852645 0.052116781 0.037925649
-0.052997191 0.053641811 0.030180441
-0.054405596 0.056857023 0.013191292
-0.056190293 0.056418296 0.0093023013
-0.055211615 0.051583771 0.012507007
-0.056535657 0.052891299 0.010338855
-0.061027139 0.07109037 0.036187425
-0.069318287 0.072891206 0.033724856
-0.062647521 0.066027611 0.027817257
-0.070830069 0.069607653 0.026250713
-0.060811576 0.063162662 0.02358949
-0.066983812 0.064215772 0.021153875
-0.077992707 0.074149698 0.022108294
-0.062048733 0.048041608 0.039051447
-0.065499768 0.042474099 0.039380554
-0.067399934 0.040330961 0.034903232
-0.072650656 0.067740649 0.019790176
-0.061503835 0.06169983 0.019715909
-0.067502022 0.064129628 0.020277062
-0.057840027 0.056308601 0.0048328559
-0.079088464 0.07348337 0.018843234
-0.062925331 0.047099669 0.012384036
-0.06775634 0.044750851 0.011822981
-0.066873409 0.043042827 0.014583957
-0.068900906 0.041043766 0.013456631
-0.061851982 0.049815886 0.0088100275
-0.069085613 0.046023879 0.0095682191
-0.07151144 0.042356052 0.010112534
-0.015257142 0.18475017 -0.021879649
-0.013971755 0.17570339 -0.020873075
-0.014740973 0.1638274 -0.010875467
-0.014802131 0.16189398 -0.010542665
-0.012089475 0.1681065 -0.017166276
-0.01315967 0.16209961 -0.013023528
-0.012691412 0.1848806 -0.025936598
-0.010454051 0.17783804 -0.025461772
-0.0080126105 0.17071958 -0.023486936
-0.024015149 0.18407267 -0.011585634
-0.025702329 0.18391612 -0.011364076
-0.024233172 0.1808387 -0.01086323
-0.029700184 0.17741716 -0.0068451636
-0.018924939 0.18565392 -0.017032022
-0.019997867 0.17763007 -0.01648894
-0.025769122 0.17370422 -0.011895622
-0.037863772 0.17502347 -0.0038864077
-0.021621078 0.16539377 -0.0094780726
-0.030241165 0.16805035 -0.0064788228
-0.021354482 0.16052306 -0.0053822487
-0.029100645 0.15925775 -0.0026781079
-0.019913994 0.16970891 -0.014163272
-0.025665281 0.1725612 -0.011940927
-0.040251385 0.1699257 -0.0021397865
-0.046780083 0.16940296 -0.0014072639
-0.035887126 0.16320056 -0.0014244354
-0.065282665 0.1599272 -0.0092991255
-0.070077009 0.16061996 -0.0066495594
-0.064921521 0.16480049 -0.018622268
-0.070507914 0.16589743 -0.016502315
-0.064970851 0.16250937 -0.014353332
-0.072174519 0.16264962 -0.01248215
-0.075981222 0.16413063 -0.019847568
-0.076139525 0.16068269 -0.015489564
-0.072843023 0.17454955 -0.038806021
-0.076735653 0.17394613 -0.039951868
-0.064950109 0.16764754 -0.025905812
-0.071081772 0.16974217 -0.02552909
-0.065103307 0.16976148 -0.031837225
-0.072528042 0.17230278 -0.032870296
-0.076839216 0.16632234 -0.026570149
-0.076942168 0.16245981 -0.021857588
-0.077364117 0.17083238 -0.035272811
-0.033494513 0.1529863 -0.0019231318
-0.065442145 0.17491229 -0.048466813
-0.07122431 0.17764336 -0.046335697
-0.068571426 0.18329816 -0.056134362
-0.064377025 0.17925055 -0.055760335
-0.069235846 0.18119608 -0.053044487
-0.07716421 0.17680733 -0.045222316
0.0054215998 0.11349 0.040748999
-0.0017447 0.11425 0.041273002
-0.010661 0.11338 0.040916
0.026422 0.11499 0.032623
0.024545001 0.12284 0.024255
0.034136999 0.11316 0.02507
0.028860001 0.11773 0.027037
0.02675 0.12234 0.017604999
0.035750002 0.1123 0.019109
0.015982 0.12307 0.031279001
0.0079813004 0.12438 0.032798
0.018100999 0.11674 0.035493001
0.0086687002 0.11758 0.037537999
0.01808 0.12536 0.026132001
0.0080861002 0.12865999 0.02619
0.02275 0.12146 0.029671
-0.0018689 0.12456 0.033183999
-0.011168 0.12376 0.032519002
-0.0020063 0.11937 0.038104001
-0.01232 0.11816 0.037427001
-0.0016659 0.12879001 0.026782
-0.011971 0.12723 0.026218999
0.016484 0.12828 0.01928
0.0070921001 0.13102999 0.018415
0.0014615 0.13134 0.017095
-0.013821 0.12886 0.019265
-0.01725 0.11202 0.040077001
-0.074556001 0.13415 0.051045999
-0.065971002 0.14396 0.04109
-0.071924999 0.14545 0.043265998
-0.065509997 0.13624001 0.042195
-0.071111999 0.13767 0.047518
-0.079527996 0.13416 0.051194001
-0.080421001 0.14428 0.042792998
-0.082672 0.13779999 0.046806
-0.088129997 0.13514 0.042222001
-0.066325001 0.12347 0.050728999
-0.072398998 0.12661999 0.052363999
-0.066091001 0.11973 0.050880998
-0.072012 0.11811 0.052294999
-0.062433001 0.12627 0.043830998
-0.068325996 0.12998 0.048875
-0.063093998 0.11811 0.044399001
-0.071300998 0.11322 0.048409998
-0.080514997 0.12740999 0.052034002
-0.078179002 0.1191 0.051116001
-0.085216001 0.12609001 0.049001001
-0.089538001 0.12621 0.044589002
-0.082658999 0.11661 0.047970001
-0.089535996 0.11784 0.044569999
-0.056499999 0.15248001 0.030131999
-0.055516999 0.15312999 0.026915001
-0.036249999 0.17197999 0.00017688
-0.037749998 0.17197999 0.00022189
-0.036249999 0.16935 0.00051957997
-0.033176001 0.15711001 0.0018682
-0.051913001 0.15449999 0.011273
-0.041707002 0.16642 0.0030522
-0.049467999 0.16414 0.0041987998
-0.041892 0.15669 0.0054879002
-0.051224001 0.15877999 0.0080282995
-0.062417001 0.15317 0.033160999
-0.071670003 0.15319 0.033700999
-0.062542997 0.15524 0.027404999
-0.072109997 0.15549999 0.027644999
-0.078662999 0.15268999 0.032267999
-0.081569001 0.15374 0.026085
-0.087250002 0.1523 0.022135001
-0.057250001 0.15568 0.010325
-0.057888001 0.1575 0.0073225
-0.088500001 0.15222999 0.019215001
-0.056129001 0.14616001 0.030850001
-0.054705001 0.13555001 0.032127
-0.054143999 0.14714 0.026275
-0.046624999 0.13234 0.021909
-0.05139 0.13694 0.025787
-0.018278001 0.12238 0.030773001
-0.021655999 0.11643 0.035209
-0.031920999 0.11566 0.032850999
-0.021348 0.12421 0.024561999
-0.03241 0.12349 0.023293
-0.024869001 0.12094 0.028744999
-0.031746998 0.12039 0.028229
-0.052912001 0.12685999 0.034968
-0.041671999 0.11564 0.032997999
-0.052037001 0.1168 0.034582
-0.042495001 0.12488 0.024081999
-0.047945999 0.12736 0.028108001
-0.042420998 0.12035 0.028633
-0.047660999 0.12024 0.028871
-0.035964001 0.1513 0.00053949998
-0.050597999 0.14740001 0.013881
-0.046374999 0.13293 0.018289
-0.049125001 0.13856 0.016269
-0.042975999 0.14915 0.0054003
-0.047965001 0.14658999 0.0086783003
-0.022926001 0.12630001 0.018076999
-0.031583 0.1259 0.017804001
-0.041733 0.12796 0.016650001
-0.061482001 0.14698 0.036168002
-0.071728997 0.15026 0.038327999
-0.060525998 0.13680001 0.035999
-0.082618997 0.14823 0.035955001
-0.087824002 0.14449 0.033778999
-0.089000002 0.13828 0.037774
-0.085662 0.15095 0.028208001
-0.089601003 0.14725 0.025869001
-0.090681002 0.13748001 0.02369
-0.058722001 0.12924001 0.038991999
-0.060075 0.11512 0.037684999
-0.091812 0.12767 0.038702998
-0.091727003 0.11657 0.039618999
-0.093163997 0.12721001 0.025211001
-0.093938001 0.12067 0.024398999
-0.091582999 0.14522 0.019859999
-0.090929002 0.13666999 0.019817
-0.093093999 0.11635 0.018959001
0.024948001 0.10286 0.041418001
0.033599999 0.092626996 0.040463001
0.027419999 0.096386001 0.043311998
0.033920001 0.086911 0.041034002
0.028155999 0.086837001 0.045084
0.033810001 0.078603998 0.040854
0.028124999 0.076874003 0.045058999
0.0145 0.093278997 0.05088
0.0074816998 0.094729997 0.052315
0.017407 0.10535 0.043138999
0.0079536 0.10633 0.042968001
0.018510999 0.097194001 0.047253001
0.0086436002 0.099322997 0.048078999
-0.0020196999 0.095697999 0.053906001
-0.011446 0.095169 0.053862002
-0.001875 0.10691 0.043455001
-0.011875 0.10688 0.043019
-0.0017622 0.10071 0.046647999
-0.012498 0.10008 0.045915999
0.016380999 0.085894004 0.051642001
0.0081166998 0.086910002 0.055227999
0.017643999 0.076954998 0.052372001
0.0081249997 0.076853 0.055535998
0.020575 0.088169001 0.049006
0.022445001 0.075721003 0.049563002
-0.0017931 0.086848997 0.056843001
-0.011943 0.086770996 0.057009
-0.0019567001 0.076862998 0.057803001
-0.011875 0.076963998 0.057022002
0.03325 0.067541003 0.040033001
0.028148999 0.066829003 0.042952999
0.026760999 0.057829 0.042587999
0.023571 0.047460001 0.040428001
0.015831999 0.067418002 0.051639002
0.0080431001 0.066901997 0.055006001
0.013984 0.058885999 0.050416
0.0080973003 0.056887999 0.052949999
0.020566 0.065958001 0.048300002
0.018594 0.056538999 0.047878999
0.012875 0.052652001 0.049688999
-0.0017852 0.066711999 0.056503002
-0.011785 0.066885002 0.055015001
-0.001875 0.056597002 0.054409999
-0.01184 0.057054002 0.052714001
-0.015688 0.052469 0.049614999
0.0066153998 0.049929999 0.051259
0.018088 0.046654999 0.043320999
0.0088409996 0.045437001 0.046622999
0.017688001 0.039719 0.043083999
0.0081249997 0.039515998 0.045373999
-0.0016111 0.049844 0.051720001
-0.01245 0.046773002 0.050903
-0.013851 0.039778002 0.051036
-0.0020294001 0.044874001 0.047587
-0.011653 0.046859998 0.048661001
-0.0018611 0.039606001 0.047339
-0.0091545004 0.039579999 0.049415
0.043660998 0.094028004 0.02252
0.034642 0.10473 0.031831
0.028343 0.1072 0.036339
0.036339 0.096551999 0.034843002
0.031732999 0.099372 0.038504999
0.036998 0.10668 0.026781
0.032875001 0.11108 0.029589999
0.040938001 0.097131997 0.026663
0.044153001 0.086465999 0.024241
0.053750001 0.072221003 0.020429
0.045159999 0.076573998 0.023593999
0.038036 0.086663 0.035459001
0.037861001 0.076624997 0.035657998
0.042215999 0.087237 0.028254
0.042355001 0.076747 0.028580001
0.043875001 0.096228004 0.015269
0.044374999 0.096796997 0.0086444998
0.039545 0.1061 0.017655
0.042312998 0.10009 0.017237
0.045405999 0.087416999 0.015604
0.055117998 0.072639003 0.017944001
0.048721999 0.073760003 0.017433999
0.045917001 0.086297996 0.0094210999
0.019432999 0.1096 0.039062999
0.01097 0.11058 0.039648
0.046657 0.057153001 0.031337
0.056079 0.066335 0.024122
0.048168 0.06701 0.026298
0.056054998 0.057252999 0.024901999
0.051162999 0.056662001 0.029137
0.036913998 0.067032002 0.036122002
0.033 0.064719997 0.039903
0.038004 0.056506999 0.033119
0.030629 0.054915 0.038484
0.041875001 0.066382997 0.028356999
0.041434001 0.060880002 0.029632
0.044921 0.049904 0.031243
0.054634999 0.050167002 0.022043999
0.048280001 0.047370002 0.025845001
0.037973002 0.048347 0.031456001
0.028053001 0.047061 0.035990998
0.025595 0.040346 0.034150001
0.038454998 0.043508999 0.028278001
0.032031 0.043278001 0.029253
0.036580998 0.040335 0.025144
0.03019 0.039321002 0.026846999
0.059333 0.067891002 0.017361
0.046500001 0.071451999 0.019710001
0.059562001 0.057746999 0.018340001
0.055636 0.049199 0.019173
0.050500002 0.045063999 0.019181
0.023 0.047803 0.039776001
0.022389 0.038860001 0.038795002
-0.019545 0.093900003 0.052205
-0.021462001 0.10618 0.042059001
-0.031027 0.10395 0.041228
-0.022521 0.097723 0.045194
-0.031858001 0.097025998 0.043878
-0.043262001 0.10412 0.040890999
-0.052154001 0.10404 0.040972002
-0.041875001 0.096943997 0.042424001
-0.051918998 0.096966997 0.043563001
-0.021489 0.086672001 0.054767001
-0.027000001 0.083086997 0.050283998
-0.02107 0.077248998 0.054365002
-0.026010999 0.089634001 0.048981
-0.031893 0.087035 0.044169001
-0.025625 0.074891999 0.047102001
-0.031970002 0.076899998 0.042176999
-0.041824002 0.086953998 0.043295
-0.051825002 0.086843997 0.044932999
-0.041917998 0.076728001 0.042564001
-0.051849 0.076876998 0.042992
-0.061338998 0.10393 0.041164
-0.072672002 0.10976 0.044294
-0.061783999 0.096825004 0.043327
-0.070058003 0.096202999 0.041397002
-0.080439001 0.11091 0.044342998
-0.061926998 0.086723998 0.044520002
-0.070344001 0.087352 0.041908
-0.061409999 0.077489004 0.042178001
-0.068579003 0.080144003 0.041023999
-0.019045001 0.067731999 0.052388001
-0.017742001 0.058908999 0.050809
-0.023548 0.066381998 0.045226
-0.033989999 0.067795001 0.040929001
-0.02169 0.056549001 0.045164
-0.036111001 0.060706001 0.040406998
-0.041230999 0.066950999 0.041391999
-0.048588 0.070955999 0.040357001
-0.0403 0.059464999 0.040445998
-0.021919999 0.044964999 0.052258
-0.029186999 0.043584999 0.051088002
-0.021919001 0.039825998 0.053521
-0.030331001 0.039749 0.052133001
-0.021997999 0.049846999 0.046725001
-0.031911001 0.046847999 0.045187
-0.035275999 0.039753001 0.047529001
-0.042016 0.044822998 0.041593999
-0.051940002 0.044707 0.043497998
-0.041928001 0.039326999 0.043582
-0.051856998 0.039252002 0.046211999
-0.059452999 0.044240002 0.042862002
-0.060764998 0.039087001 0.044362999
-0.024273001 0.11038 0.039129
-0.032379001 0.10878 0.037951998
-0.041152 0.10853 0.037969001
-0.051697999 0.10906 0.038258001
-0.062091 0.10877 0.038274001
-0.071654998 0.10596 0.037516002
-0.074634001 0.097746 0.038346998
-0.079120003 0.10508 0.032308001
-0.080202997 0.096758001 0.033592001
-0.083779998 0.10568 0.025985001
-0.087292001 0.10314 0.020825
-0.085210003 0.097079001 0.02781
-0.088082001 0.096455999 0.022985
-0.075159997 0.086039998 0.038816001
-0.064576998 0.073454998 0.038970001
-0.072278999 0.076416001 0.036412999
-0.076375 0.072563 0.028729999
-0.080031 0.087076001 0.034290001
-0.078919001 0.079370998 0.032476999
-0.084834002 0.086686 0.026974
-0.087890998 0.089233004 0.022611
-0.081047997 0.077169001 0.025829
-0.086392999 0.10784 0.018634999
-0.087672003 0.10492 0.017263999
-0.089332998 0.098483004 0.01761
-0.086374998 0.083067 0.018607
-0.089179002 0.089185998 0.018947
-0.082878999 0.076109 0.017794
-0.082500003 0.074674003 0.0071175001
-0.026436999 0.064140998 0.039321002
-0.030035 0.066129997 0.038942002
-0.026131 0.056531001 0.038881999
-0.031663999 0.056657001 0.037742
-0.045715999 0.064540997 0.039166
-0.051959001 0.066868998 0.036733001
-0.042557001 0.055544998 0.039026
-0.049405999 0.056892 0.034343999
-0.055500001 0.062391002 0.029498
-0.053750001 0.058573999 0.026312999
-0.034060001 0.050136998 0.038577002
-0.041740999 0.049589999 0.03929
-0.050974999 0.049435001 0.036965001
-0.052999999 0.051065002 0.029208999
-0.054145001 0.054568 0.012257
-0.055847999 0.054170001 0.0083272001
-0.054843999 0.049295001 0.011462
-0.056150001 0.050618999 0.0092928996
-0.061450999 0.068256997 0.035376001
-0.069724999 0.069958001 0.032788001
-0.062822998 0.063322 0.026885999
-0.071037002 0.066786997 0.025227999
-0.060857002 0.060568001 0.022643
-0.067000002 0.061558001 0.020109
-0.078199998 0.071278997 0.021032
-0.062116001 0.045145001 0.037802
-0.065472998 0.039512999 0.037964001
-0.067249998 0.037420001 0.033413
-0.072701998 0.065008 0.018701
-0.061450001 0.059165001 0.018731
-0.067500003 0.061478999 0.019221
-0.057411 0.054113999 0.0038256999
-0.079222001 0.070653997 0.017735001
-0.062472999 0.044679999 0.01111
-0.067249998 0.042257998 0.010414
-0.066389002 0.040514998 0.01316
-0.068359002 0.038502 0.011958
-0.061381001 0.047479998 0.0076069999
-0.068558998 0.043549001 0.0081575997
-0.070928998 0.039829999 0.0085888002
-0.016625 0.18375 -0.019734999
-0.015198 0.17471001 -0.018867999
-0.015944 0.16264001 -0.0091036996
-0.015977001 0.16069999 -0.0088072
-0.013251 0.16708 -0.015264
-0.014292 0.16098 -0.011252
-0.013986 0.184 -0.023739001
-0.011633 0.17699 -0.023349
-0.0091028996 0.16988 -0.021457
-0.025562 0.18273 -0.0096247001
-0.027249999 0.18254 -0.0094384002
-0.025736 0.17948 -0.0089653004
-0.031215999 0.17589 -0.0051154001
-0.020399 0.18449999 -0.014943
-0.021338999 0.17645 -0.014566
-0.027124999 0.17234001 -0.010156
-0.039390001 0.1733 -0.0023574999
-0.022876 0.16406 -0.0078103002
-0.031597 0.16651 -0.0049291998
-0.022600001 0.15911999 -0.0037990001
-0.030371999 0.15767001 -0.0012672
-0.021158 0.16848999 -0.012383
-0.027000001 0.17120001 -0.01022
-0.041719001 0.16813 -0.00074957998
-0.048250001 0.16748001 -0.00015191
-0.037250001 0.16147 -7.2627998e-05
-0.066428997 0.15783 -0.0085672997
-0.071284004 0.15839 -0.005998
-0.065978996 0.16288 -0.017792
-0.071622998 0.16384 -0.015760001
-0.066068001 0.16051 -0.013567
-0.073307 0.16049001 -0.011832
-0.077 0.16204 -0.019241
-0.077179 0.15851 -0.01495
-0.073691003 0.17286 -0.037944
-0.077550001 0.17220999 -0.039175
-0.065921001 0.16586 -0.025022
-0.072094999 0.16784 -0.024724999
-0.066 0.16808 -0.030916
-0.073448002 0.17050999 -0.032044999
-0.077770002 0.16434 -0.025938001
-0.077892996 0.16039 -0.021299001
-0.078211002 0.169 -0.034566
-0.034667 0.15131 -0.00071028998
-0.066117004 0.17353 -0.047453001
-0.071985997 0.17612 -0.045384001
-0.069250003 0.182 -0.055025999
-0.064992003 0.17802 -0.054644998
-0.069935001 0.17983 -0.051987998
-0.077930003 0.17516001 -0.044399999
